# 3D point list with one line of data per point:
#   POINT3D_ID, X, Y, Z, R, G, B, ERROR, TRACK[] as (IMAGE_ID, POINT2D_IDX)
# Number of points: 397, mean track length: 4.2121072088724585
989 -0.26371870587971713 -15.747910800389494 36.423501553018404 186 186 174 1.6852423693684753 98 117 18 413 92 79
2355 0.21139263053579888 12.917800209497733 9.5338783931636435 204 210 208 1.383134715691539 19 120 17 144
1095 -6.4141734431660247 -15.95399670893751 27.547407387756977 187 183 169 0.62441216286827228 98 3130 18 1637 1 764
3103 2.1398722683308078 -16.537054909071518 19.881624698514738 142 139 134 0.24990046727950968 98 818 34 644 92 666
990 -7.5711163713578058 -15.732301152529001 33.776457111163857 145 141 116 1.4613342629184245 98 305 18 418 1 221 10 242 92 155 80 174
1341 -17.175595524469458 2.5913494593684967 52.248632922420569 172 190 168 1.9753135241256743 1 183 13 474 15 385 12 625
991 -5.515060438712732 -15.838180662114599 25.715072215188197 190 187 178 2.2422489824394161 98 156 18 427 1 413 83 158 92 365
993 -2.9848700321215329 -16.027483534490536 24.558526116579902 109 105 94 0.86181690219098728 9 228 98 292 18 433 1 244 92 296 80 102
1654 -6.6391482603355252 11.340202173641686 29.475484799412094 56 57 61 1.1147158031442999 10 841 15 643 16 1254 18 503
1139 -23.127196218280712 8.1307916590087324 115.48508560635047 224 235 203 1.7794902975861315 18 132 98 68 1 77 10 167 83 35 92 43
994 -4.1199707756164647 -16.205090287075041 24.17558878124084 192 190 178 2.0143393256897264 98 463 18 435 1 241 9 223 83 250 92 380
1544 -11.786544123031829 13.028373477392062 28.047678248911133 77 84 165 0.92260257302184179 10 24 16 38 12 37
3003 31.894983643202092 -18.025212102289469 29.76515318499494 132 133 137 0.83823677082356673 4 118 5 161 7 84 91 36
995 1.8416657790426954 -16.433780239956068 23.727115145361449 192 190 178 1.366261959258398 98 238 1 316 8 321
1538 -16.982697731464594 5.4412384295870391 58.523394630004226 205 212 212 1.3015514958326861 1 11 18 15 16 13 12 14
997 -4.3424189537754696 -16.085872802311947 24.622611627500383 120 117 100 0.90001015708051191 98 1415 18 460
1039 8.1069152577929753 -9.5799072498191329 66.688147099786178 176 177 172 0.42647524701355949 98 647 18 854 10 703
999 -7.3253765794767105 11.057013181803983 28.595220220424622 200 200 196 1.0384889692016626 14 436 18 485 10 507 13 773 16 826 12 903
1001 -2.4850407466902666 -16.151218347365326 20.584643632375062 158 158 148 0.72684339078709803 9 388 98 1186 18 507 1 407 92 913
1662 -2.1021734460976198 12.753470608327838 21.147143642209656 38 38 50 0.71334097487865999 13 1065 16 1441 12 1085
1147 -8.5194513418484732 10.119356307606632 47.29845657250408 50 47 38 0.93310372318393175 14 364 1 161 10 274 15 375 16 350
1002 -1.3508569877280845 -16.326760473122889 20.981064459669945 170 166 157 1.3385213631927073 98 853 18 508 92 907
3027 22.875746124136814 3.4851041949497108 24.21713809253594 63 34 20 0.87176008853237297 4 337 5 320 7 285
1552 -2.9309564196185987 13.342772866842758 22.985958587201516 178 178 176 1.5202866137827609 13 69 16 63 12 44
1003 0.92285346487865438 -16.426561040890903 23.476244127268785 165 165 155 1.0239386537196358 98 887 18 514 92 541
1546 -20.251621737997759 7.7620972044548928 59.348530670542935 10 12 17 1.1145396990453964 1 24 10 42 15 31 18 30 16 44 12 28 125 23 80 22
1005 1.2566371820360411 -16.378293745173199 24.484921587764703 169 166 156 0.53581108676773526 98 901 18 521 83 314 92 372
1047 1.0715461074338324 6.4486772519173172 69.816193816867639 232 242 252 0.74811387773425098 98 1218 18 951 15 894 16 999 19 750 83 393
2950 28.754064891033096 -1.536029172450138 37.959260439284854 120 112 99 3.0968384630451711 17 378 4 484
1006 -3.1316351802304552 -16.283939452126791 24.694136942492978 186 184 172 0.22684014072928405 98 907 18 526
1007 -2.3072144390445311 -16.309887913296723 25.693670301754 176 172 160 0.1265176501694199 98 921 18 537
1660 -7.1801388411861149 12.460138952224074 31.125650380302822 112 116 117 2.1086645309705738 10 1091 15 1615 16 1351
1008 -2.2346516917458956 -15.96791664912562 26.1175191894629 77 75 54 0.31060843110001968 98 444 18 542 92 302
1606 -10.515921279111616 2.7982454780334391 50.30224306153977 220 229 210 0.81373906632775028 18 268 16 525
1009 -5.7231921080400987 -15.907398295595218 26.326613662168992 194 190 178 2.267168528916891 98 441 18 545 92 400
1091 2.6203694180094987 -15.781541667278454 30.840341114717898 0 0 0 0.25525798312448389 6 822 98 2724 9 790
1010 2.1573771690734822 -16.261342007764394 29.244115036101704 81 80 62 0.3621129897463729 98 429 18 554 92 305
1560 -5.0175192999743272 16.064320732400979 18.995804529466565 17 20 29 1.9065115275300855 13 206 16 154 12 175
2955 27.887885927191963 -3.803833354837459 38.335821278436335 178 177 174 0.53149586173516761 88 563 4 594 7 811
1011 2.7033424662340537 -16.160154408840015 30.235362129792893 135 133 118 2.1841837869112188 9 463 18 556 1 420 92 176 98 425 34 375
1013 8.3491998281696169 -14.808217564179865 65.643351824581828 162 163 155 1.7362377896090708 86 573 18 576 10 653
3038 5.490004824980411 -16.593566931660931 15.552083298491759 158 155 150 0.98081106813292562 4 291 7 362 34 395
1055 -14.471350422045418 -15.062481995820569 49.621649820817929 181 181 171 0.61895365344818831 98 2126 18 1095 10 1140 15 1365 92 1437
1014 8.0302938303907911 -9.6946314813157368 65.024040245684489 232 233 228 1.0986069740123101 86 486 98 382 18 580
1604 -5.1253453193623866 17.688406374821618 19.646786545166279 165 165 165 1.749168278991909 13 461 16 510 12 603
1015 5.6364576561447715 4.2076694119803513 77.593249232027929 163 174 160 1.7433905823802778 98 677 1 454 10 616 16 1509 15 554
1016 -10.583264576017921 9.4303533952693286 58.673751865741217 209 219 130 1.1788226095085867 98 542 18 646 1 468 15 718 16 786 92 317
1017 -10.735767115380483 9.5126477269622072 43.856271248649541 187 189 201 0.4212678523731383 14 462 18 650 1 319 10 544 13 597 15 687 16 593 12 680
1099 4.9767378962913771 -16.263371214949291 46.206194972879182 194 193 188 0.83106726417055643 98 2915 18 1915
1018 -9.4031145777793057 9.7331577603353736 36.995255987181615 24 26 75 1.9976227972885674 14 524 18 656 10 536 13 590 12 682
1019 -0.91877270458808757 -16.287659863912754 25.45829938878466 171 167 158 0.98378422013907674 98 1406 18 663 92 731
1562 -3.3362562737088148 12.874077294083875 13.939335076497406 208 208 208 1.1789834699433943 13 147 16 157 12 122
1021 6.0213351303051637 0.14242605507489428 73.360488560953385 30 30 27 2.0126443633405517 98 776 18 677 10 647 13 482 15 593 16 688 12 559
1127 -12.592237213958628 6.2830022584314076 81.168375760348738 203 213 189 1.7206147451036191 86 22 18 17 1 8 10 15 15 17 80 20
2966 13.043040079334055 4.3418513570279993 14.583173398495683 199 199 197 1.7967124629447808 5 413 4 755
3135 4.4121341016082827 -16.516430763978942 33.519342777127349 158 157 153 0.052551740421988527 98 2027 34 1591
1022 -0.55617919374521896 -16.243502823103093 26.430352049096854 126 123 108 0.95767548871248254 98 927 18 679 1 314 9 376 8 284 92 301
1612 -5.187721345055329 10.609048847699889 30.937219020276352 47 51 95 1.7079884851844926 13 359 16 576 12 557
1023 -5.5170662636778651 -15.898218798104478 26.418405405697911 174 169 149 1.5159328285799942 98 1368 18 695 92 996
2499 18.543068190762295 -17.365910173611571 30.911224218589648 219 219 219 2.4018844350577297 8 611 9 634 88 333 5 378 4 575 7 921
1024 -8.2043611012844231 10.646763703101461 45.589895718571782 39 43 91 1.6245982845377205 14 1060 18 707 1 472 10 1059 13 903 16 1627
1025 -8.0562027141404542 10.673211927420899 43.673135083069774 54 57 100 1.1047904729771691 14 625 18 708 10 540
1968 15.412198528818454 6.3336858753156564 54.833871485584844 83 89 99 2.2597650111214334 85 421 19 1031 11 843 7 430
1028 -1.4542637067788637 -15.968797038526185 21.529049644475052 147 147 137 0.35780965438083784 9 500 18 745 1 529
1029 0.47689849564938869 -16.369478595552639 22.735066446689569 165 162 153 1.1870900591351052 98 881 18 755 83 739 92 538
1030 2.1184346502611722 -16.602001310800972 23.218699972118195 151 148 139 1.2408190498728173 9 513 18 756 8 618 34 661
1032 -4.1945266821026266 -16.124407326985263 23.592579574233763 166 163 156 0.93775512943654515 98 469 18 778 83 313
2491 14.852632335818143 4.0540610948659408 55.534901164046033 27 38 40 1.4499329807282413 9 606 86 561 88 296 14 1375 84 614 6 872 89 495 5 512 87 358
1033 -3.8191432821964795 -16.227876485377418 24.138511422189584 183 181 169 1.8498478264077658 98 1437 18 782 1 534 9 510 92 1331
1036 -3.6121745499268685 -16.050748165433809 24.226751229600119 85 83 71 0.23325135001324457 98 460 18 809 92 294
1037 -7.9451593132224048 -15.482356199294742 32.093640553879496 138 136 121 1.3817653417614746 98 1314 18 812 92 1411
1980 11.990705925078581 1.6687900505417474 57.550486088117268 188 188 190 1.4228939498003357 6 1100 9 976 88 448
1044 4.3027731938385054 5.400570342983019 72.135260626564417 69 66 59 1.4665863779792829 98 698 18 932 10 1067 15 1178 16 1101 12 860 19 1000 84 506 123 378 83 266 125 309
1045 4.5806304735825476 5.9405246113163805 73.009516404724238 53 61 81 2.439703022584816 6 501 14 1378 86 494 18 939 10 769 16 979 19 1769 125 457
1924 10.911396299065276 1.3056703137641505 54.032099260035558 173 174 168 0.39739691972779634 19 468 34 327
1046 3.8742594976964715 6.2052820516560612 68.731087617526654 54 59 101 0.7112669215359686 9 468 14 813 98 706 18 949 15 892 16 995
1049 1.8716171343334802 -16.370079226242115 28.053603611248402 114 112 96 0.29693334849248276 98 940 18 981 92 394
1928 -1.1155381139960305 1.4221688862072581 76.482107821458342 230 237 219 2.3199221184049263 16 683 19 475
1052 1.6039275412766658 -16.269903453234949 35.63967626794566 191 192 184 0.78128563218552571 98 1307 18 1030
1053 -7.8479074571978114 -15.734754642262049 34.485914091580355 154 156 143 0.87767824460896726 98 1306 18 1039 1 595 10 699 92 1033
1932 -0.34284123174321107 2.5425819610793767 71.723564307225146 222 233 215 2.6372822734451971 15 345 16 674 18 865 19 724 9 347
1054 2.6307300934773648 -16.205036511929769 37.381255290404908 155 154 150 0.67771436636049376 98 405 18 1046
1057 -3.4010971642632692 -15.587905126245982 64.200715866169375 193 194 189 1.6119699536695649 98 637 18 1104 123 259
1872 0.073563215538540463 12.755343510732096 16.595011064571807 206 211 207 1.6957673139864158 13 121 19 130 14 101 17 95
1058 7.4050308497938397 -16.302892239154144 68.681367180966319 137 138 133 0.075935973641424237 98 1500 18 1105
2764 31.493928769063388 -18.218558527136643 42.849304573924741 111 111 109 1.6642553276192196 8 97 5 92 4 116 7 87 91 39
1060 8.0585558978434744 -15.641241726486687 67.524380364439494 85 86 80 0.98609390832658628 98 1162 18 1107 86 571 13 679
1061 4.5522203585169638 -15.028484421498947 68.233378138361999 87 88 82 0.5539557875649691 18 1109 15 596 123 155
1876 5.2410465262463539 9.146380072260909 26.645149994144706 202 205 196 0.61495296630267771 13 221 19 177
1062 20.863982808961321 -23.882034341953212 119.2243391103967 157 158 152 0.63838471194803581 86 513 18 1111
1064 -12.976351171572713 1.7481886871331092 62.788063363329535 33 36 45 1.3117079708790915 98 2152 18 1125 16 901 13 692 12 822
2395 10.008034520836761 11.20675934483088 45.451978154068499 107 117 123 0.79223944376404731 13 406 17 503
1066 -8.5944982081800987 3.8683344134598658 68.063008236392776 148 157 136 1.9817040034522659 98 679 1 450 16 649
3054 4.0475784315418819 -16.823265771669792 20.009775679921137 155 152 147 0.94429333591081444 4 375 7 677 9 644
1071 4.0727040052105039 6.2721055079839889 68.445125781661034 80 85 129 0.49652983587764643 98 1219 18 1239 10 939 16 1128 15 1161
1072 3.8811110314282025 6.8986795368448499 68.643557499818954 55 59 103 1.1125203427702344 98 718 18 1255 10 934 16 1331 19 764
1073 -9.9118375492058028 8.9340424646981678 59.327709039875579 201 201 192 0.7658512928778658 98 1266 18 1279 10 1212 15 1202 92 1083
1074 -8.5314846302829555 10.327723556668595 46.864693747365052 9 9 9 0.62607649261877563 14 831 18 1283 10 916 15 1126 16 1293
2477 6.2306705037866497 -16.876948972638928 34.254836448388843 170 169 166 1.7721648273062869 8 289 9 372 88 188
2780 16.019285012005007 2.2597593703800571 28.965987347001491 205 206 208 0.23472570054550324 8 165 5 154
1076 1.9152126223252219 10.197480711205174 35.893391817387432 60 62 61 1.8347252204268625 14 1269 18 1301 10 904 13 1285 123 281
1080 7.1073929335226067 -9.8948962136351284 65.730325613690781 195 198 197 0.60213390194285876 98 644 18 1332 10 1001 13 628
2475 21.951529949152874 3.0717044458658878 31.595015041799449 9 12 24 1.5865246117662402 88 177 89 245 11 262 11 292 87 214 5 370 90 68
1081 -2.0869485191553583 -15.479270108908185 19.960193471482231 145 141 133 0.57241254080674708 9 386 18 1373 1 528 8 568
1960 15.336684753687912 4.0507724270510854 56.712064515299652 143 147 148 1.5355028382405036 14 1372 19 996 9 845 6 779 6 1083 5 516
2779 6.8576297054432747 10.583133114582338 20.042225388374174 30 33 128 0.86195778443326121 6 144 85 131 87 129 82 102
2501 19.165139467626872 -17.316676380863235 31.890681222084933 166 166 168 2.1683370783136291 9 458 88 335 34 366 91 98
1082 -2.8519980311820357 -15.693045760538924 21.425686816587493 150 150 140 1.2913549291886162 9 651 18 1397 1 635
1083 -0.41127731968166409 -16.319133957252227 23.976797884454307 168 165 160 0.48916707329790854 98 1460 18 1430 83 884 92 953
1084 -3.9237294685133004 -16.074809834465313 23.933930421835335 182 180 167 1.2764936395876298 98 1864 18 1443
1089 -6.0884709840059843 -15.895538062662892 27.107102045902781 94 87 68 0.51694599470796698 98 1363 18 1514 1 414 10 592
2032 0.010629213207729209 3.4081066092016852 69.027734797502745 192 201 180 1.639237688171852 84 78 123 68
1090 3.3791659575274315 -16.488199337298511 28.996552077008683 183 180 171 1.5045526937593692 98 1348 18 1519 34 1568
1093 4.662159559319174 -16.234366284617252 32.988922551861748 164 163 161 0.48779548437557319 98 2028 18 1595
1096 -1.003449071198568 -15.856954747391123 24.059623285862525 145 142 133 0.73743873489679557 9 747 18 1709 1 715
1097 -3.8827324815999318 -16.054806948924913 23.661449444487321 150 148 136 0.78611785396064093 98 1448 18 1726 83 887 92 726
2040 15.020784260081159 4.3605802512305569 30.862497806431719 171 171 174 1.152405835527627 19 193 123 134 7 73 4 155
1098 -8.3246499766883542 -15.55806640553109 40.603242076210755 163 163 155 0.78262088031538901 98 1140 18 1891 1 725 10 1014 15 1360 92 1047
1101 -5.5117754233117831 9.9689032624011276 218.67887507132224 200 211 179 1.8500441794520057 98 2159 18 1977 13 928 15 1421 16 1348
2044 -6.6919577533491754 -13.55742339901386 69.685134528460736 185 187 184 1.5013104452840196 6 530 10 1002 13 471 14 1126 18 1112 16 1723 12 409 83 293 125 256
1103 1.1880792839134318 6.8289664114164852 62.396948524763616 124 132 172 1.3355232733005611 86 691 18 2049
1104 -2.3796087513925164 8.2444911079193819 72.048616619072206 233 238 232 1.9276201900226129 98 1242 18 2051 15 1143 6 494 14 821 16 1315 12 1613 92 478
1825 -3.9685766616426448 3.3045232110493816 61.851094316902028 222 231 214 1.6350591640414833 6 543 12 1404
1105 -9.6325847019801927 8.9452973864568559 59.553748713483628 206 207 201 0.74267164196136759 98 1265 18 2061 10 1278 15 1135 16 1573 92 1082
1984 3.6515318292496652 5.0039041947975518 71.46678916491939 181 180 185 1.5488629867550967 13 1016 15 1703 19 1762 12 1420 16 1805
1109 -10.449785303383123 10.25274365876369 42.585698655807178 24 29 64 0.77320147562136554 14 520 18 2130 15 1121
1988 6.2702376740822245 7.3894096753264833 71.342286961555374 97 99 148 1.4412362553902127 15 1469 19 1802 12 989
1110 -8.0557745950797379 9.7815499408182216 40.659088170815572 57 63 108 1.6699016558666582 86 836 18 2131
2855 19.175859069185933 -17.385452064586975 31.768475536600828 221 221 219 0.46613804760036232 9 794 88 509 5 557
1111 -2.1907140501283009 -16.187489542709788 25.073367323886959 186 184 172 1.3995213318809743 98 1899 18 2249 92 1116
3014 12.508676026622494 -16.843550483717262 12.500368315236081 165 161 158 0.36356953372579104 4 181 7 165
1112 -0.21857165351694269 -16.296119420769262 26.441761006600959 186 183 174 1.3328748993639696 98 2634 18 2264 92 1594
1833 -7.50473118175442 10.272950789968245 13.01966513417438 193 182 150 1.2164247554314125 16 711 12 358
2507 16.61908095805012 -16.632759259963269 28.682909376507887 198 199 201 1.4882072462304119 9 791 5 457 4 571 7 797 34 1595
1992 14.515851237495594 8.8948567988672771 55.570850398444136 151 156 162 1.1264186420289624 6 654 19 1839 14 1077 8 451 17 648 11 831
1116 5.9721052948765267 -10.972539370675893 65.066883841269373 195 200 196 3.1822613454887758 86 665 18 2472
1837 -6.330183846045875 11.888768201503192 14.441931100494962 228 228 228 2.6345482209206388 13 5 12 3
1118 11.842792301653679 -12.222688823125813 66.625767891409126 149 150 145 2.4399235624373201 98 2931 18 2475
1120 11.88670557134088 -16.163481917416942 65.845658845702559 81 80 76 0.34433052652567619 9 989 98 3150 18 2484
1121 2.6621904856896932 -16.117719156515278 30.782456589117494 147 146 126 1.4905677446776646 98 2001 18 2611 92 1386
1936 13.303723363597268 2.9366314350231666 56.903302064685796 90 96 97 2.7269721512802576 14 804 98 685 19 733 17 482
1124 3.9991294942171267 5.2011858163210833 71.912297771542953 119 123 106 0.65561223967795768 98 2987 18 2659 10 1321 84 896 86 858
1132 0.75079902845305646 2.0688937936645493 97.681549634130164 206 218 196 1.4605937297229858 98 379 18 584 10 283 15 176
1134 -17.853443457596267 3.9048871632108444 92.090059535942927 158 169 137 1.7447948429495446 86 136 18 864
1137 7.6812067677339302 -16.774068770423071 46.531010699541156 249 249 249 1.8480797817044257 9 20 98 16 1 25 8 23 83 10 34 12
2016 13.678348376005729 5.118592233632703 53.493634579892628 69 71 83 1.8913851004222042 14 607 19 426 9 697 11 289 19 2845
1145 4.46115570498878 -16.595051689246581 30.091081463207253 155 153 140 0.94817845027972381 6 127 9 139 1 142 8 111 88 77
2024 11.847751814172199 -15.238006352690753 65.581553405883483 116 113 106 1.1936083356240856 6 23 86 14 123 5 8 14 34 10
1146 -9.7936064117104777 12.749727156267724 54.420947987914978 57 60 91 0.85581238711047991 98 43 1 159
1152 -6.1189379284867176 9.2238890261003181 37.920209009442218 60 59 101 0.51204752516569807 14 373 1 209 10 539 15 514 16 1135 18 1294
1156 3.9944123040562771 -18.371679724599353 32.637587365268267 143 141 128 2.7065212045802243 6 187 9 296 18 838 1 367 83 896
1813 -2.5231385840731799 9.0942148315759184 16.354482020682024 48 46 59 0.7601064350078075 13 788 12 917
1157 6.8355980190356318 -15.599211536367422 45.667685997437516 190 191 186 0.77190909853348177 6 526 9 452 14 649 18 569 1 433
1160 -5.0372771898233886 3.4706505392670701 67.85800132544108 0 0 0 0.16256459428396508 18 879 84 358
1817 -4.3716874144557991 9.9653861177416836 19.246064683049074 80 79 84 1.6334098113089615 15 457 12 1100 10 420
1167 6.3650832523999945 -9.9515425334944378 65.633206848916103 190 192 191 2.0505888381310471 86 576 1 607 10 1144
1168 -0.12288068126734397 7.6703125528622031 73.218418759790467 91 82 99 0.84904209734376257 85 401 1 626 10 932
1889 11.949828758827053 2.23090528708178 57.992516661432703 229 229 233 1.4624297456584681 13 657 98 359 19 276 11 302 34 213
1169 -10.28294010125486 9.5636926862543863 47.568061531545695 192 194 183 1.0207803799053858 14 827 1 630 15 1207
1171 -4.1496667734592787 -16.154099449614183 23.012847279468691 141 139 127 0.45717212498609233 9 501 18 1417 1 666
1173 6.819268619763851 -9.9335085910617611 62.414571672415789 219 221 220 1.9308823075077455 14 1354 18 2470 1 690 10 1301
1175 8.975700787544632 -9.7170498025293899 66.662042886856256 126 127 122 0.36858970073455338 98 1122 1 751 10 1245
1176 -12.11602991237514 -36.855108451473946 96.592324564794083 169 169 157 0.79394487526613045 98 2095 1 765
1177 8.3450284320661794 -15.643909805888706 44.972365454807345 202 202 202 1.7341582710141923 6 1129 98 2116 1 766 8 974
1179 -5.773653015073859 8.5219978276718606 73.730773890451246 0 0 0 1.5053638871963799 14 1447 86 594
1183 -1.6313289700679618 4.6745419600489324 65.138423947333209 238 246 235 2.3971732622947126 86 11 1 5
1185 -3.9519254731722544 -15.853888803510872 24.175885232168557 159 159 140 1.2921696387840058 1 243 92 298 80 273
2000 13.328325305720048 8.658531012612297 59.15241662261576 62 65 72 1.7296783583592834 6 1033 19 2312 14 1079 11 284
1188 -3.3054107094234406 1.6979628803396001 76.15259675336074 134 140 130 2.521298990916407 18 1949 85 556 1 798
1845 -1.5592911458648766 13.845123669830906 24.785754694321568 0 0 0 2.8496643505003463 13 214 16 223
1191 3.2830802994303325 13.113388072063596 35.146934871060928 20 23 30 1.7755083777371039 6 64 85 43 10 74 14 70 13 72 12 69
3030 28.338415986853434 -17.846843069448788 37.358868777001931 168 170 169 2.0837565657351083 4 204 5 257 7 315
1192 -7.9046209102840983 12.53761785837505 31.416117825636363 18 21 30 1.7573205189938115 14 111 10 86 13 131 15 90 12 153
2523 12.250969987007547 -16.480301169823335 42.04648820297723 192 193 197 0.28411540105321387 6 445 88 530
1197 -3.8813591977290498 9.5384977795172965 19.168232292674602 52 48 49 1.5548616878264361 6 122 14 118 10 99 15 129 16 142
2012 14.914170788447999 4.0684644215202468 30.318834414434065 208 209 213 1.109384628997133 6 763 19 2911 9 868 8 448 17 1551 4 698
2354 0.31143787282208957 14.794391029190034 11.227886029750136 188 193 201 2.5031440415522535 19 68 17 143
1200 -9.7998437244605743 20.186095281720402 95.702313643812133 201 192 159 0.20399600201311613 86 53 10 105
1205 -5.2703882956595773 9.2277019023182199 21.368850499681191 219 207 159 1.3899959935005941 10 131 13 196
1206 -6.3303772497207467 1.7381458008258228 23.664426692619877 235 244 227 1.622220799119638 1 131 10 146
2823 13.565850338167124 -15.479587246803179 33.766060056764502 216 216 218 0.94069082005199622 6 668 5 380 91 149
1208 -8.4070200654575959 11.811998768044129 31.453281623640134 218 219 214 1.5722487604849942 14 177 18 230 10 172 13 193 15 200 16 129 12 147
1213 -8.2121400692069866 11.445644443529705 28.094751404515119 27 28 30 1.0178400159512049 14 432 10 243 13 436 15 300 16 460 12 539
2306 2.0766197442636565 -16.294829586206607 36.784287710527551 177 176 174 0.072228407675015732 10 1129 92 1409
1217 -6.8105848483478999 12.969950096491123 28.795096826729029 45 47 121 0.85695906674720179 14 253 10 259 13 256 15 243 16 266 12 249
2304 -10.888460507439161 -15.571336274198142 30.475295483181004 168 164 161 0.30222819250154898 10 1033 92 1407 18 1598
1219 -6.3618792749846973 -15.324078172624889 30.944274999540333 190 184 168 1.6092417895984188 1 361 10 273 92 256
1220 -4.4123877290249807 9.0229171478514711 33.271063279763347 192 196 199 1.3285810407658942 6 162 14 272 13 409 15 234
2362 3.3723783605891104 8.3838646442819531 22.766191319010893 68 73 138 1.6300779390908744 14 182 17 199 6 98
1221 7.6113972107647703 -19.103012965603579 81.880660215641228 163 164 159 1.8738949332805099 98 386 10 328 83 424
1224 -46.208334905253608 20.209626905068998 206.25502422662319 237 246 229 1.2264624038602281 1 133 18 341 86 193 10 355 15 415 16 424 13 512
1881 15.109094911441771 3.1231960324767445 56.683713067862335 41 45 48 1.62872213989422 6 397 14 313 8 251 17 310 13 642 88 407 5 191
1225 2.9442904633151725 -15.503993700459489 34.053859253398016 184 183 181 2.2679887637234848 1 320 9 215 10 371 92 770
1233 -10.855580804651964 -15.835290624093506 27.4196852154985 169 166 161 0.82272395667666887 1 418 18 1525 10 557
1236 5.1217018604068922 -16.215482404540165 45.972463031851753 144 144 142 0.32472848094893453 18 837 98 627 10 663
1957 1.030113787356425 3.1911482988036739 77.819938431110913 211 222 208 0.85750057853991013 16 1487 19 985
1241 4.2524088492013714 4.464344373547382 72.348445018765105 234 245 228 1.0359283403918393 6 475 85 262 10 749 13 1018 15 853 16 1082 123 373 83 275 125 304
1243 2.4911002556978339 4.1279390417935025 63.587924418766555 252 255 251 1.9395672837371205 14 809 18 913 98 347 10 752 15 988
2472 25.262585686144643 -17.308422386012875 42.565042303290902 133 135 134 1.215567346069337 8 235 88 159 9 363 89 187 5 182 4 223 7 314 91 101
2617 12.943573739786054 2.0908947254904233 53.852058063326872 66 80 89 0.80623611229899028 85 410 89 485 84 616
1244 1.6111855922986278 8.4913971006819775 65.543972722565556 203 204 199 0.30562281426730542 98 1259 10 804
1965 -0.68887680070038637 6.4804044077550493 73.103006094759024 189 198 207 1.1436116966535532 18 2039 19 1011
2610 16.267477046737042 4.2682028722030561 29.081043251563056 182 189 199 1.7503543355444884 88 308 89 397 87 310 8 573
2466 19.019295154805015 -17.61707393207611 32.306760157994802 166 166 164 1.707744247867516 8 115 88 138 34 117
1245 2.8586722597619429 9.7912656127118769 35.066431480361366 4 3 9 1.4317924605937806 14 629 10 820 13 583 12 684 19 312
1249 -13.472799855336282 -15.835850860160418 27.981254398647746 173 169 166 0.38482861769097459 1 722 18 1626 10 1041
1250 6.0607371180337228 -14.698684613217251 66.070923476592142 201 202 197 1.4253996646935505 6 801 98 639 10 1060 13 681 15 651 8 305
1252 -5.2950194965183357 11.214919881692014 38.015801665852216 61 64 141 1.0035220679665382 6 633 14 1046 18 1339 10 1076 13 765 15 1116 16 1592 12 810
1909 -0.0032792327732495807 5.7933639901732548 73.972157233532513 238 245 254 1.702306619995861 15 533 18 619 19 432
1253 -4.7843102330428273 9.6365512141107956 30.107981751559876 42 45 96 1.1305406328851919 14 530 18 2078 10 1078 6 430 15 1738 6 740
1255 3.7734750719639027 5.6511780257015198 67.387193386678632 87 92 134 0.35836358508921906 18 1561 98 2221 10 1203 15 1553 16 1542
1256 -0.087588670983993352 8.022619177366332 72.641015223455085 104 113 150 0.85157793180299535 18 1805 98 1247 10 1208 13 1251 15 1195 16 1611 123 546
1913 -0.77021868168076923 4.2384589517452085 76.631963177774367 194 200 198 0.01166073868801752 16 1508 19 443
1257 -6.1387187538846462 9.0028067278282222 37.67749288380228 15 16 23 1.0107490930539564 18 1292 10 1218 16 1288
1259 0.43795567799211693 7.767316074501883 70.925987295855009 123 132 172 0.52773165293708468 98 2234 10 1225 15 1566
2424 14.287718241025706 2.1669107167088089 52.480994729157921 94 98 105 1.9658772843050847 8 869 6 815 9 839 11 1134
1260 10.027891933985666 -18.490674301918336 93.060700011442748 189 191 189 1.4493605662614446 18 2476 98 2295 10 1242
1917 -0.94074649663598786 3.5172033709517172 74.53467892802729 183 194 189 1.9135700656490486 15 392 16 1495 19 450
1261 6.8564445034391142 -10.232300698128412 66.090777872589882 196 197 199 0.38586000203840126 98 2933 10 1243 15 1493
1265 1.4496966392753809 4.0780197491604557 71.506954569831251 225 230 226 0.70607747096412088 98 2195 10 1349 16 1898 19 1758
2352 22.572875468881406 3.9705356619396106 31.501458053229669 50 49 54 1.8440235952205231 17 132 11 109 5 132 4 108 7 57 87 89 88 70 124 44
1267 -0.71200731381705384 -15.805921952721478 35.953560458382533 65 64 48 1.0620271218992021 98 408 18 1329 10 665 6 267 86 157 83 231 92 775
1268 -12.444144408298238 2.4299292196810316 53.799425826843908 158 168 143 0.55215971584399415 98 48 10 118
1861 -9.993013951532383 2.1062285623480133 57.020826828650982 145 153 142 1.1058625442284318 1 674 12 1381
1272 -1.5962636786131632 -0.053321860479548025 20.422771195915654 0 0 0 1.7604637709985334 9 115 18 258
1273 -4.1894390783501052 9.763621764566853 19.633350809764696 100 100 100 1.1625476015095593 6 189 10 251 12 202
1275 -1.9451885543805389 10.856211198413838 33.382223827547378 57 65 128 1.0806807748063934 18 370 84 209 10 467
1276 -6.852311902809773 9.4132445090257537 32.62143084667531 21 21 84 1.5766698916504684 18 335 10 473 13 412 12 468
1869 15.83738286189301 9.2026796250997815 54.184701576555682 45 48 53 1.796296875263957 14 84 19 89 6 79 9 67 8 31 17 69 11 61
1282 10.043337203186489 10.294034531141827 67.104486960989803 224 225 227 0.67730910095415608 6 6 14 10 13 7 9 3
1284 -9.5836892309904513 13.064473298695669 30.523050834054935 29 31 70 1.0811942819664728 10 17 13 24 15 25 16 28 12 36
1285 3.6109346630487216 -13.835735777635039 69.739620422359181 77 78 82 1.1805583999975713 14 19 84 12 13 25
1286 4.4824044022492524 5.9144935666628555 63.037429809894846 0 0 0 0.50718277387397626 10 26 98 11
1287 -13.616823951120775 13.533768137386337 37.808579644104007 19 21 56 0.87280915791456315 10 27 13 30
1288 -9.4729426652070341 9.8093099289076608 40.518813775816056 71 75 146 1.7992210736319993 10 38 14 30 13 34 15 29 16 43 12 29
2235 3.6975233005355004 4.6926236361007918 71.102763147583715 206 210 213 0.54449146164809359 123 743 83 1116
1289 -4.4664355443662673 2.9153204398282333 60.823103839847157 240 250 226 0.92197626788275655 1 31 13 36
1720 -1.2586347119112233 11.770807301648619 34.441671500766553 69 72 139 1.1881983537106942 13 73 14 49 12 48
2261 -21.765409854874502 8.0445317105909417 58.848420730544902 211 215 214 1.0328976340392639 1 65 10 129 15 150 92 45 16 124 18 94
1290 -3.4025196908547271 4.6066149047227336 6.455933991047158 160 161 165 1.4350634194664802 14 42 13 43
1292 -15.6900886111614 10.577701164210506 44.812920300578199 171 153 105 2.0816021159319424 10 45 18 45 13 65 15 58 16 66 12 43
1297 -3.6719566637334284 9.3200878053663789 41.157570048398128 209 205 178 1.5541745137604994 1 36 18 55 13 102
1664 -3.2050189034238001 12.534050957281684 13.696564641079826 114 114 126 0.58034850737489685 13 826 12 752
2187 5.2274746838430444 1.3182984204766306 75.680501611604313 0 0 0 2.1198973107176515 98 100 123 169
1306 -5.6162178254814465 9.8255503850840107 31.076133106591541 199 190 157 1.1433489329572677 13 152 15 85 12 115
1308 -5.3793096332100268 2.1805786376999108 68.176541759617379 0 0 0 1.4855448274131529 10 117 84 79 125 79
2275 -2.3141946970505769 -16.152450216385883 25.174007336418203 137 130 120 1.4512761833323549 1 146 98 586 92 250 9 230 18 535 80 103
1312 -11.756950285930902 13.538501111082121 33.455008990387697 17 16 69 1.3523783910748952 10 177 13 195 15 216 16 287
1319 -10.892222674271808 14.686270395266344 28.598140783474044 212 213 217 0.89603361031255702 10 250 15 187 16 208 12 162 13 138
1329 -5.1859424498105806 7.5165097996149015 79.735881773880934 0 0 0 0.54474007463754726 1 287 85 148
1696 -0.47267300101637061 1.6873023373574263 60.608166225786604 171 184 167 1.7951114694101129 1 346 86 377 16 682
1336 -9.4629993448775913 17.368393787761597 33.385380221873938 160 170 223 0.6260189430343297 10 186 13 390
2245 -4.6131665908082544 -15.545210152588172 59.19997572338827 208 208 210 0.4799209752714319 18 254 83 173 125 181
1338 -6.6597963374153535 17.645326048440168 48.835200726829108 67 67 67 0.91365413394663864 6 254 10 293 14 472 18 313 13 433 15 479 16 455 12 542
1340 -10.505486676542755 12.750713799835596 32.023215198169368 14 16 67 1.2344425841371849 10 449 13 435 15 640 16 717
1347 13.086521704463058 6.7925873520505178 57.442413778649652 129 135 149 0.80630148973481519 84 237 85 211 13 513 19 216 123 196 82 179
1349 -3.5333184467259935 10.325650929985247 19.671489031823185 72 71 77 2.0045244565131335 10 680 13 544 12 523
1350 -12.764735993910742 11.211244838306721 34.046807733362058 180 181 186 1.6601761817928147 10 1077 13 577 18 2077 12 472 15 490 16 306
1354 14.598916075322634 2.8167762982389695 53.79526550764016 56 60 69 1.2288670433027387 98 577 13 647 19 446
1359 -4.3141180571766427 1.9927828526528673 81.950058730259158 180 186 183 1.5585784700538323 98 288 13 694 12 716
1361 -0.1061166027288054 7.084965204696327 72.648530054558307 154 156 169 0.76572267167119934 6 504 9 418 10 570 18 629 13 741 15 898 16 608 12 782 19 422
1728 -0.60638309700947601 12.351935346799269 16.074740171253865 18 11 60 1.4440705900214923 13 142 12 90
1363 13.223748287485785 12.406217996101551 56.887027656078047 50 54 55 0.74838716347092404 98 746 13 752 19 786
1365 -4.9521163319061783 10.980999814487964 36.185982210157412 74 77 156 0.69204611859730381 10 823 13 767 18 664 15 1113 16 1278 12 815
1732 -15.692126828028371 18.478696245034261 34.772357351717446 218 220 219 1.5481513463385836 10 72 15 77 12 101
1366 -9.7376243477567019 12.69714917141277 32.344921639163516 47 45 98 0.60441534830030197 10 451 13 777 15 641 16 827
2599 20.29743411789465 0.90659575217514476 24.633585902788109 132 109 69 1.1846171262888594 88 172 89 327
1577 -4.5921316282548021 17.605257445579674 20.003958687195897 134 135 137 0.92490596400303549 13 279 16 285 12 368
1368 -0.27955115633775696 7.0482798700065166 7.7152284760610641 44 44 53 2.1957578447820008 14 314 13 838
2251 16.237588203331921 -28.644350224737099 92.705326458956577 0 0 0 0.25010792500190343 14 571 98 55
1371 -6.0572919788473261 10.576648705868573 41.630134272344947 74 78 152 2.0505211684404601 10 909 13 896 18 709
2088 13.177798870320608 7.2735727762265547 58.372982507815117 104 105 108 0.38469630045373543 14 1222 123 642 6 900
1581 -6.2945668530824435 -6.9205793211732223 67.179438629372456 156 158 156 1.153260775175456 1 349 10 332 15 282 16 301 18 1944 83 124 92 354
1373 12.625113062960112 1.6528787744125004 57.114938484718557 132 132 134 1.2694606165488169 98 1150 13 956 19 974
2082 1.8212192601089248 -16.249791662486636 51.59614640335969 208 204 202 1.3910727642734357 6 1127 9 1005 123 583
1374 6.1431476968668326 -0.26163984699437848 74.814950012368698 150 154 155 1.9319611821159781 84 913 13 1041
1376 3.0324592547535509 10.721151407485083 36.540434250268838 34 34 34 1.6592574668078495 6 1005 13 1092 12 1228
1377 -7.1955642044432713 17.689805924226054 48.02768917994733 130 130 132 0.86140062623628233 18 2086 13 1101
1680 -7.4881192891129338 10.156585999687831 27.620151330620388 22 21 27 0.38053352839315896 10 1085 18 2621 16 1852
1378 14.634197894255241 -13.046710150578448 66.634167464667556 74 74 74 0.0040072916790993866 98 2682 13 1182
2205 -8.4446101580124679 -18.198821816012636 34.508467503760272 130 128 105 1.7173582616583942 1 421 18 794 83 303
1381 -10.012054163170646 9.1179407735469287 56.217271925327616 217 231 86 0.80953159883086201 84 426 13 1260 12 1227
1684 -6.8787341230249544 13.806949272774418 29.066620716195715 125 126 121 1.4490634594907317 13 59 16 61 12 50
1384 1.4084589842036142 10.219574424602206 34.542497884317392 100 100 102 1.61811275388327 10 826 18 693 13 1448 15 1112 6 505 19 795 17 917
2203 6.4746018943180914 -16.245968226512478 69.468945438877753 147 147 147 0.28561206917272425 18 573 83 294
1385 -4.6312806961071757 8.6627289450237495 32.497789476547617 68 74 124 0.95663043872655307 6 569 14 844 13 1459
1386 14.185311917385835 5.4215701581569453 55.635587577651009 87 89 91 1.3991901486136493 6 1066 14 1396 88 638
1391 -12.763514680719327 2.4553283260531886 63.969265283964035 148 161 144 1.2991729814720248 1 190 13 316 18 402
1392 -4.6880237749003628 9.3495033196205064 32.614562947540094 75 79 143 2.2120793908381167 6 326 18 363 13 354 15 283
1393 1.5523382764385729 10.537753311665714 34.880290631311972 41 41 41 3.3465446755076664 6 1001 13 414
1394 5.7688873038245374 5.195928821519594 69.799195126196594 0 0 0 1.5356441911985481 85 264 98 342
2285 -1.2676860400286056 -16.390487024469863 19.125291827615275 154 151 146 0.58655154516609098 83 300 98 365 92 521
1396 -2.1845004632362124 7.4963477596516563 74.062386879889502 209 221 201 1.2423162178241616 1 463 13 609 18 961 16 764
1399 12.822856108071125 8.1380443358040662 57.252481893483782 115 118 125 1.3604738279495814 84 374 85 275 19 298
1400 -3.7128672182706315 9.0643435506496228 30.098689279541585 42 46 116 1.0611761327294129 13 8 15 2 14 6 6 3 12 7
2283 -5.3907889576778958 6.658299802879851 76.668496569948047 0 0 0 2.3818776313307577 10 1200 83 261
1768 -2.2676611020451856 4.07132615029919 42.039902006504164 177 187 189 1.7088881803914122 6 303 12 284
1404 -3.2341507171750874 10.205322551726983 18.959553018529984 27 28 32 2.0202217031202641 14 38 15 28 6 25
1406 -9.3609196183617573 15.112670140524132 30.434814530158075 142 144 162 2.386054164419364 10 32 13 48 15 47 16 62
1553 -3.9030620225759636 12.027825256576426 14.334107859747336 94 99 190 1.0405455953526905 13 117 16 67 12 86
1408 -8.3285788857140055 16.993342322964327 26.075441586496034 33 33 43 0.70948946418622749 13 67 15 70 16 69 12 60
1409 -4.9911432050990925 16.162079302454309 28.884120893265472 184 184 182 1.9223219100468647 13 83 14 72 15 73 16 103 12 97
1414 -2.700773652206808 1.2058563947215435 33.635344382418388 213 227 202 2.3354408448691339 18 81 15 104
2583 31.128155668543076 -1.5931767214941437 40.795172954038271 119 120 113 1.4001468207208998 88 166 89 270 5 266 4 239 7 138 34 341 87 176 91 67 11 193
1561 -4.8315530715287194 17.240933309224129 19.881256017998705 13 14 19 0.33231886113123837 13 204 16 156 12 120
1416 -10.638668873659055 16.497612200072044 31.980800433809495 82 83 86 2.1734966432611751 10 84 13 85 15 110 16 147 12 126
1421 3.315125577973677 7.2966005817834878 68.071350847277813 55 61 115 1.1894162260558445 84 97 15 171 85 110
2066 0.63429535709278762 -15.751187713137472 58.37712100150469 180 179 177 1.8442030988862446 6 848 98 2127 123 329 14 1129 18 2161 9 1018 8 945
1424 -10.510598886390058 17.10832543935906 26.50600726594535 221 221 223 1.7175765042089397 13 209 15 179 16 278 12 194
1633 -13.860165235198322 9.279902651064555 28.654236115888349 161 168 223 0.48838445865654689 10 528 15 670 18 466 16 804
1426 -10.624021606894576 10.725105375431751 25.120000605131018 46 52 135 0.90190455396182456 13 197 15 195 16 261
1637 -2.0354744288129942 11.214099140346207 34.277033088585767 39 41 126 0.89730471839443382 15 739 18 888 16 812
1431 2.7015349707475016 -16.476864825491692 51.870636409331979 199 198 196 1.2463944060690015 9 252 15 266 6 275 14 206 8 207
1432 -8.9416621366298923 17.35379121570643 26.684641462272413 185 185 187 0.82818965215540175 13 270 15 273 12 243
1641 -6.6874199289141547 13.140003147161504 28.630540997468653 157 161 164 0.89332226188272268 10 677 15 463 16 847
1434 -6.2733480451973342 14.659326899697538 28.550722626075913 156 156 156 1.7899007285166537 10 185 13 201 14 173 15 276 16 271 12 199
1435 -4.7141934104747616 9.8988177237623969 34.235187416424914 0 0 0 1.5294797062380312 10 472 14 288
2152 2.9925464216516553 -15.768394458552839 21.472478873650871 145 141 140 0.67038952313153322 9 648 8 669 1 321
1443 -1.9477598936729168 13.080964664192757 21.282860939900761 3 3 12 1.5170334802698791 13 267 14 310 15 328 16 277 12 252
1589 -5.4176609057064953 16.776255483227761 17.385208716253899 168 168 168 0.5395256863805854 13 466 16 379 12 488
1444 -6.1977905939157942 11.984841567895621 17.754084131863895 86 90 138 1.2961641284171783 13 269 14 244 15 329 16 279 12 242
1445 -10.41684209993398 17.514863225550926 25.577833283018588 228 228 228 0.88332458299944383 13 361 15 330 16 493 12 352
1748 -13.495413085768371 15.375335161991623 31.744943659484047 202 203 206 1.6692140889875828 10 258 15 190 16 201 12 201
1446 -5.6981437653324063 -4.8746328114211694 53.250985056988902 0 0 0 2.0064587727598577 10 378 98 1 15 381
2615 30.030307371084788 -4.2043008313552832 40.661797368398211 183 172 136 2.0087449217360485 88 561 89 481 4 487
1593 -4.9943687044471456 12.347741268497311 34.541851061269156 240 241 236 1.8086930556141558 18 102 16 389 12 319
1448 -5.9621770808937491 16.260464957664965 27.246707335765517 17 23 37 3.3183024495865934 14 311 15 445
1451 -7.3109499991134159 12.388660818160675 30.965155415374301 199 199 199 2.1733679085280819 10 459 13 283 15 474 16 459 12 327
2104 6.2683739842142376 6.7160518954925621 72.38990960307774 49 54 94 2.0340284096885184 86 43 8 19 17 22
1597 -7.6424874598727328 10.613370755559739 28.419303349525908 18 17 22 0.98076433008382091 13 431 16 454 12 546
1452 -7.417489960526602 10.682999363714542 27.876976805950136 16 16 18 0.63199588612798818 13 432 14 438 15 477 12 544
1453 -5.5503067060233304 10.547574981323711 27.949256519321622 187 187 185 1.3714262389399077 10 453 15 478 12 323 13 381
2098 9.7777356868228136 -14.07103763611652 57.874943213681497 99 96 91 1.986507595499833 6 242 123 154
1537 -14.351955593113868 8.2716967508238124 32.663856326874587 220 213 195 1.8454783034959239 10 9 15 6 16 12 12 8
1456 -5.4513602284940985 6.6360775005729966 68.758933333823677 185 196 180 1.7992399682937632 10 573 98 204 15 516 125 349
1461 -9.4887015135538118 2.1046399304685068 57.949721792836144 202 212 185 1.114003159849869 1 114 13 696 15 580
1462 0.20210371985245726 1.331724172015154 60.309266475153009 203 211 197 1.5807858150349956 14 332 123 503
1463 -19.772200420277674 1.3917311413408742 58.199056843575072 22 23 25 1.3160908189015388 10 706 18 505 15 589 16 1458 18 1120 125 367
1545 -18.480543960881761 -11.516642761654275 58.010845238041256 164 164 162 0.70360796437012441 18 32 92 26
1464 -17.773942067603052 -12.426547482547109 49.907781435982663 83 83 81 1.145065415199807 1 354 10 658 15 599
1549 -3.0463357111246303 4.5025421988900547 12.618381199826763 225 226 221 0.071804714022683402 10 18 16 59
1468 -4.5119303942263409 16.874981483887943 28.278368910700184 137 137 139 0.59543849610475119 13 793 15 609 16 724 12 592
1469 -6.1714997849878266 16.252726944277811 29.756915176541586 37 36 41 0.24267210604089082 13 538 15 614 16 861
2050 -2.6940467148793794 7.1259821293895911 70.002670527555907 171 181 158 2.1813046319598373 12 784 84 372 123 193 15 419 16 552
2048 15.019356492122373 8.5462875837299421 53.58440851634402 133 104 115 1.4852764748648501 84 166 86 233 123 177 85 277 17 174 88 113 89 170 87 153
1475 -5.3629636813562689 13.094209304624044 38.270283905533439 76 81 139 1.8935866265308778 10 831 14 532 18 714 15 745 6 559 16 571 13 575 12 564
1476 -7.1123984393402679 11.136275760883596 30.724071165635973 8 7 12 2.3313857535862788 13 189 15 751 12 262
1480 -4.9395733912854265 8.9793087238642446 31.68464158050967 25 26 90 0.93897835142059116 13 522 15 794
1625 -5.611332112983912 11.365007534371125 28.793247040854705 185 185 185 2.3613919730121293 13 434 16 753 12 575
1482 -18.017375539671008 -15.486533499133495 37.008741322591789 181 177 174 0.34592677220174767 10 701 18 1059 15 806
1484 -13.762475747195495 1.8195045256750737 63.856197738978622 32 35 44 0.62035598054080276 10 997 13 665 18 860 15 819 16 903
1629 -17.598770880723006 9.9229749525840312 34.885804501319193 174 181 225 1.6026749079055667 10 534 15 675 16 795 12 683
1489 -11.454828550167104 -15.381503058172909 38.474748240943143 175 172 167 1.0046266074662227 18 1071 98 2084 15 919 92 1045
1490 -0.89512223435944793 11.082162690260898 18.11583070933688 24 22 27 0.81490216820480621 14 1146 15 1043 16 1173
1491 -1.5260808707564353 9.7315284466829386 15.922574810493787 21 18 24 2.5960325135508593 6 676 15 1054 14 990
1498 -5.5739961667642115 0.69544349279860607 64.779613741413158 51 53 52 1.6796925467612804 6 584 10 1248 13 959 18 1945 15 1187 16 1457 12 819
1500 -9.890416569096077 9.2794477391382095 59.409631950472509 207 210 179 0.42683859550188652 98 2260 15 1203 16 1574 18 2064
1504 -13.723768470029089 -15.143754574950993 36.442683446466944 178 175 170 0.65068744228947262 18 2448 15 1355
1649 2.8228556751656448 4.8650052378423521 72.708507902133206 244 248 251 0.74920657951419545 6 780 10 1193 13 922 15 1441 98 1197 16 1086 12 849 19 742
1506 -7.5821036674724294 -15.649941478122871 42.071699684473053 183 180 173 0.234515838802069 98 2102 15 1362
1508 6.1526683082480043 -13.621858285746912 65.913522186504082 176 177 179 0.67428230455739957 98 2925 15 1367
1653 -3.9796829434777643 10.40017020335414 21.109225524086941 9 8 11 1.5084894814712513 13 1106 16 1229 12 914
1509 -9.0908336081850933 -15.667067492883238 37.834511582864927 173 170 163 0.18581649639076581 10 1017 18 1864 15 1519
1511 0.88463686928647012 10.169217425221907 28.661886824039989 164 166 185 1.5213118854445273 14 1563 15 1752 13 1088
1512 -1.8952456259519959 8.82127525491474 14.13448847188058 12 11 16 1.2600317343139138 14 1518 15 1765
1657 -16.143167448210509 9.7915997943778805 32.080088441091824 128 133 189 0.39452996194918455 10 905 15 731 16 1284 12 807
1515 1.4722430974847962 4.3088027039762693 70.697746888939662 243 249 247 1.8225498795512651 6 396 84 311 85 328 1 337 15 979 98 683 18 1191 10 958 13 1220 16 1076 86 446 19 741
2168 2.0743354711919575 -15.565838564799714 55.410944530318396 0 0 0 1.0398447247922484 6 529 86 770
1516 -1.9941951726856479 11.079319457616736 33.27096549218534 42 44 102 1.5955721643425345 6 558 15 742 9 220 14 448 18 372 10 464 13 417 18 705 16 1272 12 467
1661 -9.5409938328061763 11.922345669394106 22.831489163120469 185 186 183 1.372072571800296 10 421 15 1085 16 1364
1520 -6.3297180757742817 10.557625581893246 25.805917613671003 206 206 206 1.949841579971709 13 132 15 122 16 135
1609 -4.6717199741917135 13.370284881954527 36.945061429272833 66 69 113 1.3996093913778778 10 511 13 564 18 376 16 564 12 748
1528 -0.94012903833355088 1.4293366721456722 41.250141975486855 229 237 222 2.8412897812972524 1 186 15 578
1613 -11.817118909176944 9.524007152061337 26.479265693864281 134 142 211 1.3715114110679167 10 291 16 579
1532 -19.139406366249808 -15.048365810963597 36.096313309571102 183 180 175 0.55874429171523676 18 1061 15 916
1540 -4.5482470026020332 11.871770290892746 28.943715172058866 221 211 175 2.0065527135108101 13 19 16 20 12 18
1541 -20.638195698038803 2.9312316026191518 59.333890868557006 11 12 17 2.4358682811174179 1 18 10 23 15 22 18 21 16 25 92 12 83 7 80 18 79 24
1548 -15.642704907064662 9.7158287366561655 38.186771428614769 219 214 194 0.86058895356738607 10 25 15 30 18 24 16 58
1555 -3.4881045438753673 12.450067949109378 13.82404743248577 32 33 89 0.5128685500625636 13 115 16 96 12 82
1557 -13.335059393689543 9.3541528659713862 27.415687911302832 56 56 120 1.401032252693504 10 122 15 153 16 127 18 114 12 144
1563 -6.4247515323705695 16.933580259410203 17.96634979127483 217 217 215 0.42725746459946834 13 149 16 158
1565 -8.6322710304549712 9.2446503446748149 25.712186423551053 206 193 148 0.85573093077716134 10 170 16 188 12 145
1567 -11.213187391083448 12.716404727039277 26.897116514779409 96 101 183 0.56769174070241379 10 180 15 193 16 198 12 204
1569 -3.7362497703040671 10.753826098615523 21.159905189681904 182 182 180 2.0072831062426073 13 387 15 185 16 204
1573 -6.1790391612244777 17.299747567727707 18.456980833408416 209 209 207 0.34612863803639232 13 374 16 240 12 236
1579 2.060323993811759 2.1812245685441782 63.804853415182393 196 204 193 0.44869115328052978 1 267 16 292
2542 14.894676843948956 5.5619202061350714 53.582120982774732 151 154 204 1.6812940405745029 84 883 89 903 7 965 8 958
1583 -7.555911052346306 9.0346422669842568 38.688566877613056 47 52 113 1.4517899015851661 14 368 16 351 12 463
1587 -5.3309814231652028 17.693250572095788 19.543706081554699 173 173 173 0.64440633195977204 13 462 16 374 12 492
3281 9.528508418565977 11.051345013113259 16.406831518604672 48 49 141 2.2082486019785827 85 23 82 37
1591 -1.6154820734244102 8.4474061227678465 22.312298488400121 208 196 172 0.35979405768979222 10 111 16 384
2470 23.062643270874737 -16.038194486057051 37.348728587184851 166 167 166 1.7990750790817751 8 270 89 165 4 128 7 179
1595 1.3973392748236564 7.2205002006231833 71.055454793693869 205 213 235 0.98541195651564728 1 324 6 420 9 328 10 410 14 492 15 424 18 633 16 425 19 295
1596 -18.946873692222066 10.171530133288964 41.641867835756848 225 219 205 1.5510939494099132 10 276 15 378 18 355 16 437
1598 -10.721197964680643 10.572400057814084 23.330417710185724 46 49 128 1.2154056207828248 10 429 16 465
2558 16.509043204967931 2.6922867086432518 34.278238960452178 205 209 218 1.8795929670237577 8 135 89 80 9 271
1599 -4.3296631716276233 15.797028602598381 18.071878746512322 77 80 89 0.79895253737622873 13 804 16 469 12 495
