# 3D point list with one line of data per point:
#   POINT3D_ID, X, Y, Z, R, G, B, ERROR, TRACK[] as (IMAGE_ID, POINT2D_IDX)
# Number of points: 101, mean track length: 48.084725536992842
115076 -3.761403129414985 0.030217545300289639 1.4574518609181375 0 0 0 0.59722285451333956 329 386 348 1200
250110 49.838283029892473 25.183421011280828 106.33970335414257 0 0 0 2.2733549965041511 64 531 44 516 381 1023 67 409 351 1196 354 1667 348 1637 374 883 372 764 377 987 377 1601 45 536 375 1531 351 1292 378 978 158 287 95 1006 345 1344 82 361 313 639 339 881 265 680 294 1126 309 581 159 372 170 622 292 450 381 1026 193 339 169 818 32 726
115195 -3.9187845516636406 -0.023799976165146005 1.2725292475761143 0 0 0 0.81442005870541068 204 633 224 570
282227 6.6164115821146297 -4.9523186664073648 22.030779502419964 204 204 204 0.76258230975831109 16 1 353 1 356 0
141327 1.6960562321081216 2.7108701183074739 6.0021689880157112 228 230 227 2.3963444576836119 34 1367 304 147 297 185 20 891 21 1203 22 968 23 1335 24 1032 25 1056 26 995 28 766 29 784 36 1215 37 1029 40 1235 41 714 42 739 43 711 47 739 49 724 56 627 44 739 46 668 33 811 30 1090 24 1027 26 1031 32 1596 36 1206 38 1453 39 1152 27 1411 32 1598 33 1557 38 1452 41 1394 42 1399 43 1445 44 1041 45 920 46 987 47 1415 48 965 50 915 51 890 53 940 54 972 56 935 30 1098 33 1564 36 1219 34 1139 32 1608 31 1502 51 893 57 1236 23 1337
115262 5.4833464732696315 0.010581670810476252 -1.835169848941272 92 61 43 1.6929626813300234 45 1162 22 816 21 860 23 868 25 1436 30 1523 33 1023 35 963 36 1052 41 1438 47 886 26 878 89 617 99 1039 101 502 88 865 156 786 37 1457 97 446 39 1677 100 704 98 1057 49 800 102 952 142 524 68 843 106 867 105 532 104 856 134 445 116 385 133 424
278725 57.131872936061725 -58.427948057779588 159.88068150675596 0 0 0 1.3283837998241013 164 442 169 458
116051 -7.5002112380594497 11.104581116056117 42.324823409769515 5 2 29 2.1267134647275334 187 709 191 1062 200 645 201 572 202 654 204 693 69 343 87 298 88 294 93 296 50 1136 85 330 86 320 79 870 80 856 81 727 82 815 83 532 188 975 194 689 91 297 92 303 129 869 84 792 69 545 85 665 86 564 113 188 95 310 111 187 88 530 92 502 93 513 110 231 109 199 89 945 108 199 95 546 96 412 85 423 99 331 94 343 117 178 189 649 193 655 195 597 107 230 183 808 105 201 106 245 185 974 104 255 198 590 97 262 112 178 128 190 102 240 98 322 125 150 126 157 129 179 103 255 100 347 101 299 132 189 130 199 131 213
133972 -3.9187845509935926 -0.023799976099282739 1.2725292479762689 0 0 0 1.0399095524413025 226 749 233 759 260 817 203 779 208 803 229 818 175 752
254259 -3.9187845543098692 -0.023799976649307879 1.2725292472396488 0 0 0 1.1806374774565942 192 145 259 794 233 148
115452 -2.6050363875759306 4.6298654666226291 14.549621873333077 202 202 200 2.0043307668430059 187 137 191 136 192 93 194 116 239 107 240 120 26 1291 44 1375 21 1134 30 1434 34 1453 35 1558 49 968 50 1227 53 890 54 1293 22 447 25 331 58 283 23 416 24 295 26 360 27 438 28 313 29 322 31 457 32 425 35 434 36 465 37 389 39 393 42 285 43 279 45 239 46 350 48 243 56 311 59 281 61 239 63 161 30 325 33 327 34 309 40 284 41 344 44 262 49 309 51 206 52 260 53 230 54 283 57 244 62 226 27 349 50 257 55 184 65 150 63 125 47 265 58 159 59 161 60 145 57 176 188 130 21 272 199 70 51 1205 190 125 241 100 59 919 64 153 189 93 19 254 197 82 184 104 237 93 236 89 193 119 195 107 183 103 238 78 185 121 186 120 196 92 198 73 20 262 17 300
115789 73.167542048035827 54.76651696154962 222.60643576593893 179 174 156 1.968430166062733 279 378 281 374 282 422 283 387 232 593 265 616 159 587 222 525 223 621 123 438 127 775 167 594 168 654 169 587 170 513 173 533 174 736 175 763 176 534 177 743 178 792 194 597 200 578 201 700 202 794 203 604 204 841 205 841 206 566 207 567 209 550 210 537 215 595 224 405 225 600 226 604 227 792 228 877 230 566 231 569 233 801 234 873 239 819 242 1088 244 594 245 1043 255 741 258 443 259 695 260 362 261 393 262 640 243 1007 208 638 225 610 244 453 173 545 176 556 200 591 203 430 207 579 210 377 233 812 252 790 199 564 256 350 254 808 241 1040 246 886 235 733 19 571 61 547 65 547 69 520 73 431 74 416 78 545 81 351 82 556 84 552 85 411 86 452 87 488 108 814 109 471 111 471 113 889 114 438 124 310 128 385 132 417 135 250 155 385 157 365 160 272 162 291 180 356 249 735 332 1325 18 842 75 450 24 1300 43 1271 181 363 44 1293 19 964 65 552 82 1120 86 524 98 877 131 343 81 1053 84 1012 13 476 114 470 17 534 83 441 111 399 113 345 125 323 128 333 75 321 19 430 119 366 239 306 248 758 170 664 177 722 200 563 234 857 265 605 232 829 306 706 332 1321 338 1710 337 1518 247 826 284 385 178 816 289 877 189 888 189 461 290 981 291 502 292 689 103 400 197 775 184 735 237 800 208 639 224 751 106 378 106 412 236 753 193 838 195 520 195 529 105 382 107 387 183 738 104 427 238 384 288 687 286 423 285 357 293 964 284 391 294 1279 296 848 297 626 295 1081 38 1047 293 801 257 391 257 628 253 694 185 900 185 551 141 779 251 417 140 424 186 700 300 598 196 529 196 377 198 736 154 362 138 769 172 733 152 517 299 793 130 346 116 452 250 640 134 368 134 693 126 313 287 354 182 642 147 431 298 872 280 390 145 488 303 439 119 816 157 673 112 377 160 296 124 306 135 247 156 310 182 294 180 745 149 466 278 365 278 369 263 568 158 322 151 290 266 461 266 424 148 584 299 682 329 718 25 521 326 675 301 1230
297303 10.589541830933463 -9.2032590445423068 25.042838917104312 146 143 136 2.3035471488454786 4 779 68 1026 167 494 168 474 169 460 215 475 2 1268 5 933 6 757 66 630 70 642 76 733 79 646 90 672 216 428 4 769
237936 5.8715130557463073 -2.8579250626129276 11.997561611245986 210 210 208 1.8612620074777342 322 2 114 1 160 2 321 2 349 0 394 1 371 1 314 0 355 1 116 1 124 1 162 1 312 2 70 1 79 1
115793 -2.8252925494631107 1.0271998720437767 5.6062156237944825 215 208 165 2.0724447265454544 169 401 178 813 206 451 207 391 210 382 224 754 225 423 227 603 233 820 239 465 240 1033 242 1109 187 647 187 644 305 366 258 734 127 381 303 452 170 523 188 514 200 409 204 471 205 632 209 390 222 399 232 464 230 409 261 671 228 247 234 274 259 710 230 591 170 504 123 437 224 219 206 577 252 809 283 401 299 494 301 398 304 372 243 1015 262 657 254 823 190 1139 246 901 235 414 123 584 123 571 249 400 256 696 298 633 296 474 295 757 297 515 247 838 284 405 294 529 243 1012 289 905 189 900 167 410 159 575 284 258 289 467 290 380 197 781 184 422 241 1055 291 344 237 244 265 103 238 756 302 642 300 622 286 673 285 704 293 382 293 384 293 1183 242 586 191 324 253 356 185 399 251 369 196 540 285 233 279 147 250 141 244 207 287 415 299 1294 280 512 280 641 230 306 224 154 206 200 233 312 259 145 261 124 263 579 208 301 202 252 227 272 228 313 266 477 292 909 288 713 251 368 306 728 248 211 127 523 293 986
115984 6.1012432086479311 4.8244143608637984 9.4366557493357881 186 185 183 2.2722334432828579 35 1284 27 1146 30 1219 31 483 33 442 36 456 41 1532 47 1142 27 471 30 486 32 447 40 420 42 417 29 1263 34 1264 30 803 36 920 27 1144 41 1112 333 1093 331 1266 298 971 342 1433 344 1388 305 253 338 522 296 296 341 1660 299 284 297 289 295 1129 337 374 342 1428 335 337 335 1640 339 388 380 1020 37 1133 334 426 333 639 291 213 337 1673 338 1346 43 632 30 802 332 370 293 836 331 1128 342 1424 337 1676 293 619 344 1380 382 1629 382 1633 246 783 333 349 381 1669 380 1017 243 886 379 1456 342 377 295 401 296 427 390 1735 294 650
159840 -2.0058384933666127 1.163225922079731 4.3829793812857281 0 0 0 1.3837253082253522 381 1662 335 1546 294 1191 380 832 297 668 298 671 299 722 302 361 305 641 296 1165 382 1128 298 1250 304 461 300 1164 381 1668
151030 -3.7615873185985609 0.030025737610426179 1.4566928323202193 142 141 136 1.0133232028914796 326 1292 348 1555 372 691
301030 4.670694157890952 -1.7622775373863371 5.5464864949546175 229 227 232 1.4372894502339335 110 175 303 162 67 218 17 325 19 292 51 273 57 282 59 256 60 261 61 242 62 267 63 239 64 249 65 247 69 170 70 220 72 250 73 219 74 215 75 212 76 235 77 272 78 253 79 245 80 231 81 214 82 238 83 213 84 251 85 256 86 260 87 236 88 169 90 233 108 137 109 133 111 172 112 116 113 125 117 173 119 128 124 100 128 148 129 121 132 143 156 103 160 135 55 284 56 268 58 260 125 123 114 171 131 157 135 108 302 150 308 159 306 157 328 288 329 178 326 181 307 144 300 179 327 185 330 215 13 317 11 285 18 336 20 372 305 228 157 111 93 162 22 340 25 376 354 288 21 359 14 292 309 128 331 210 341 402 351 177 376 370 378 404 180 118 345 222 377 261 375 342 325 151 374 340 386 449 340 293 16 260 68 217 381 316 105 136 6 241 6 726 391 452 392 419 162 133 393 385 390 375 384 472 71 237 4 264 383 383 66 216 166 118 372 337 352 245 387 372 12 252 154 105 152 131 5 256 395 402 116 104 116 589 126 148 121 161 121 604 8 266 115 114 115 434 349 234 373 289 385 380 322 152 310 134 7 216 171 102 171 422 122 102 122 615 163 97 163 528 2 257 118 108 10 889 15 250 10 268 347 236 388 329 165 105 120 125 158 133 3 977 379 343 9 266 1 224 9 920 370 284 346 219 312 133 164 100 164 382 321 124 394 321 368 258 369 268 350 271 320 122 397 320 353 214 212 131 371 241 396 303 357 206 311 114 358 186 323 191 367 248 398 309 324 183 365 220 214 88 356 223 366 237 314 117 319 103 364 198 399 314 355 205 318 131 316 110 213 88 361 172 315 137 362 208 363 210 359 165 317 98 360 223 155 142 313 132 3 226
143762 4.5077297813498713 1.5582881688822903 5.7487415165460396 199 194 165 1.8316673879696685 37 1203 53 1020 386 895 390 2114 384 666 374 460 378 387 391 601 393 365 345 1587 340 592 395 533 387 652 372 290 385 489 373 604 379 561 350 723
185764 -3.6634333733916802 0.041332135087088197 1.6376768042146597 0 0 0 1.2971910316709503 308 864 326 804 363 328
214680 -4.3209065283661028 7.6371162277298463 41.444428652715082 0 0 0 1.602642192547292 45 8 51 9 53 8 242 5 13 9 19 11 24 8 25 9 26 6 52 6 54 5 59 11 61 10 63 8 69 7 89 7 91 6 92 7 94 4 95 4 96 6 97 3 100 3 72 7 245 6 18 8 50 7 103 4
116609 3.7924963814958583 2.4037851154111305 6.3780975989728868 47 42 108 1.82653765046299 40 1370 45 881 53 893 56 894 58 901 62 887 65 833 85 69 87 88 89 69 91 127 92 87 93 88 94 108 95 131 99 130 108 74 109 80 110 66 96 123 27 694 30 1449 31 748 35 1571 36 867 37 1374 38 1399 43 1341 44 1378 46 950 48 924 49 973 50 1240 51 850 52 1230 57 965 59 923 60 889 63 575 22 333 25 340 300 78 302 71 308 50 17 310 20 341 21 352 24 448 26 355 28 472 36 793 50 553 52 572 19 481 29 583 32 627 39 628 41 661 42 658 47 627 54 592 55 416 61 303 30 697 48 374 18 313 35 514 38 711 43 429 44 503 46 575 49 612 51 427 56 334 57 459 59 344 60 325 63 300 65 356 19 324 33 1490 34 788 18 488 21 706 24 1334 28 1410 29 1480 35 1575 42 1346 17 519 303 48 306 48 20 873 32 1529 305 74 84 452 299 98 301 65 304 72 326 60 333 95 331 84 332 87 336 95 334 90 344 117 338 107 298 74 340 76 342 101 343 104 296 85 297 84 294 112 337 100 295 79 335 108 339 122 44 1382 86 74 284 56 290 60 292 74 106 65 105 84 107 70 104 77 288 62 285 50 293 64 289 66 291 77 103 101 130 67 282 36 287 49 283 37 132 48 286 38 307 65
156099 -3.7521539658455536 0.034600783954023391 1.4736899845282301 0 0 0 0.63852828630329905 298 1127 328 1560 326 634 334 1387
116920 -3.8827995291765651 0.061247520567753219 1.7720868259339033 90 54 38 1.4807540270818131 123 645 224 424 174 753 175 874 200 744 202 811 209 798 210 577 215 648 221 379 170 734 203 379 222 601 194 937 229 894 230 755 226 603 227 815 242 1212 245 1143 190 733 235 748 260 538 247 565 252 578 167 701 197 806 184 753 236 782 183 373 196 718 198 716 248 566 178 835 246 759 219 481 254 632 195 760
117472 5.4782407450112807 -0.00054523237160222793 -1.9244381856719925 0 0 0 1.1231075736301845 27 953 29 1329 97 855
117345 -2.2509119041036065 2.6174138999930046 47.103821255365403 220 218 219 1.3626750453912961 41 1024 191 992 169 769 209 761 242 687 187 418 70 210 31 421 85 240 39 1066 17 409 117 161 119 117 92 265 48 411 12 271 8 212 13 257 15 297 9 351
117399 9.4977465076750409 5.5018737903749679 14.213024033369054 43 37 34 2.1530044994395654 49 723 57 691 46 983 44 1040 49 1019 50 914 200 671 202 667 69 147 88 90 93 108 94 127 101 89 108 77 92 219 43 650 131 83 44 1048 29 1187 34 1176 230 676 232 899 233 920 39 836 49 398 100 80 139 486 39 1168 242 652 142 101 23 1049 103 70 106 86 193 667 107 99 104 70 143 650 140 911 151 60 134 78 153 47 144 51 148 37
117943 5.4782407450140278 -0.00054523237329687343 -1.9244381856906991 0 0 0 0.95246996952056773 23 157 35 219 38 234 40 204 41 148 42 141 43 196 47 185 28 221 32 215 33 175 36 179 34 160 99 104
118351 -2.9077633594872441 1.1684431003467513 5.2793141258881002 27 13 10 1.8446167691518494 302 478 305 547 296 646 241 1200 185 964 190 1013 200 628 239 891 243 331 186 986 192 258 193 250 203 900 256 384 249 270 237 631 173 189 174 228 175 218 176 254 177 236 178 262 183 260 184 254 194 237 196 222 197 279 198 230 202 259 204 254 205 233 227 651 230 647 232 665 233 843 234 488 236 592 185 300 186 288 190 325 200 232 201 230 203 250 239 320 241 326 251 259 253 206 187 337 189 281 195 249 231 228 235 222 238 255 240 305 232 239 230 227 233 229 234 287 236 228 237 248 257 213 294 512 227 229 228 238 229 241 283 415 292 731 297 505 298 669 284 268 300 363 291 535 297 1230 283 234 296 630 290 360 250 210 301 330 299 343 284 149 285 192 289 211 295 491 286 214 290 1080 292 966 287 214 298 668 299 596 297 349 300 213 300 637 305 1356 208 690 305 546 288 237 288 425 300 1163 249 589 251 745 302 888 295 1033 304 731
183020 -0.37249147581624548 1.0498093940297957 9.7122915600281701 197 200 207 2.2479623533405428 20 1014 36 593 77 900 307 121 24 1519 49 1295 54 1382 38 1619 58 1141 45 1194 48 1278 50 1230 58 1229 61 1176 62 1090 65 1166 14 1290 72 1149 90 903 68 783 46 1261 64 972 4 1224 4 995 12 928 31 981 15 1313 314 57 216 48 279 43 268 27
217657 -53.413502333950412 70.440167068158544 279.86717085292452 0 0 0 1.4280937602095984 23 410 185 70 186 67 26 419 30 504 47 444 56 400 89 221 175 43 176 18 177 45 178 48 183 52 184 68 187 78 174 41 188 65 190 69 69 342
177800 4.1242368790246831 1.5212764593608692 5.7998325080312885 78 78 76 2.3050082807886594 338 1995 335 1775 336 1114 337 1830 289 251 313 1107 299 1482 301 1405 289 941 304 1066 292 251 294 280 281 760 26 1153 28 1250 31 1514 19 1160 95 917 114 113 36 1550 101 1010 30 1284 280 739 46 228 280 136 291 639 87 138 104 88 26 219 292 1209 314 656 293 748 302 1163 288 255 278 683
118425 -4.1019656079396469 -0.1489026684011128 16.901265010185295 183 162 99 1.6203467882017835 57 860 169 784 209 626 221 591 222 784 224 591 226 578 227 689 245 724 255 839 252 503 170 717 173 766 176 680 187 1109 200 546 201 647 204 592 207 526 210 498 215 482 229 524 230 876 167 509 167 517 231 553 206 678 215 501 226 579 199 459 169 785 209 624 221 590 229 622 230 525 248 833 235 522 189 582 159 781 184 528 195 471 238 513 238 514 185 619 196 494 198 515 196 790 172 552 189 583 211 742 220 741 231 554 219 548 218 508 1 1008 217 518 216 509
134435 5.3260172554335892 0.92456725005343243 5.9712703554529218 122 126 174 2.215451109659166 36 1880 308 871 329 1331 341 1675 333 1056 336 1060 336 1055 328 994 340 1412 376 1928 343 836 336 1056 301 947 336 1062 373 1446 322 1112 320 940 371 1081 371 1082 314 601 319 830 318 798 315 652 363 1313 363 1316 360 1067 360 1485 348 1079 380 1179 334 1064 360 1068
118690 -3.9187845495882141 -0.023799975480066005 1.272529249434823 0 0 0 1.6723289110623833 176 410 202 423 175 868 234 876 200 414 225 427 201 377
286644 2.6653568059851049 0.70288825609211214 4.99790853279152 194 191 198 1.9258917419270638 280 116 299 363 301 550 309 220 314 174 319 173 322 305 323 414 324 162 326 240 327 362 328 304 329 272 331 852 335 636 339 370 340 470 347 578 350 281 351 1590 352 655 373 316 380 640 386 470 397 842 46 1114 334 417 336 378 342 407 345 396 365 275 370 366 397 422 33 1670 84 1069 93 1003 59 1050 49 858 96 1184 60 425 86 650 316 640 399 432 399 1173 315 159 362 238 362 1309 345 1653 359 270 317 218 39 1106
119334 -3.7241196786310304 0.71306551721632627 15.757336017690593 131 95 63 2.2615614675800928 62 440 168 837 203 599 11 567 14 777 40 835 51 1192 58 693 244 903 18 549 20 449 47 489 19 1378 31 931 32 938 42 617 46 1045 61 161 13 253 14 232 17 343 37 509 40 376 43 349 44 458 46 359 48 275 50 322 52 331 58 272 60 276 63 206 64 295 65 275 27 398 45 309 51 253 53 285 67 207 72 208 77 231 22 1339 30 1186 40 997 56 214 57 205 62 311 18 414 42 367 199 550 30 495 26 831 19 364 33 956 21 229 31 572 34 390 22 356 25 391 29 401 19 267 26 368 28 351 11 202 177 451 178 498 187 1125 194 319 201 451 202 493 229 480 232 454 233 625 244 367 252 295 256 313 258 257 259 663 260 535 265 539 242 766 245 747 260 454 230 337 230 548 254 250 248 688 246 653 235 538 247 384 59 822 16 273 16 654 183 533 4 277 196 302 12 263 12 908 238 532 15 194 10 162 8 173 9 212 241 725 219 571 267 593 30 1175 250 288 251 333
119969 15.929815633559265 5.5544640099792879 19.656117796487646 200 192 169 1.8574169451031193 93 140 328 328 69 140 84 182 155 396 79 874 85 202 135 697 160 363 162 295 180 511 181 711 73 763 85 662 65 801 72 573 81 516 80 861 57 930 80 218 69 190 93 207 52 1210 341 338 340 364 378 1579 377 1391 382 1969 325 316 381 2008 290 349 393 1734 383 1616 372 1515 386 926 161 67 146 513 179 348 391 583 375 794 395 1267 182 494 349 958 372 539 171 392 391 1773 310 655 383 1619 382 1811 158 278 395 505 378 1461
178724 4.8003843238948933 2.8495765060109282 7.2129336291047998 84 72 111 1.9305763498881239 107 679 382 732 389 843 375 887 376 1322 377 912 378 1017 342 448 382 1976 45 1263 381 1062 389 1177 308 183 300 270 343 308 306 196 296 1117 341 305 140 640 327 234 326 220 340 267 303 198 342 979 375 1248 379 937 386 998 391 1016 392 964 384 2187 376 1311 138 161 151 595 387 1326 345 269 152 585 153 360 144 672 147 508 150 372 390 2338 133 525 307 819 335 1503 148 492 393 984 354 645 380 1736
119985 12.571243979372827 -18.048689756450589 76.00337289799576 177 177 175 1.815256857803186 21 765 127 428 20 769 72 787 81 676 113 640 83 691 13 875 8 1195 19 925
273535 9.7389748154615461 -4.3497583519297196 14.191755885941872 189 193 194 2.2668545443522845 58 729 307 533 359 681 364 724
302464 -1.6142633757774205 -4.55332707366804 13.582504074286138 0 0 0 2.0305739419656019 63 720 217 630 218 419 220 431 223 489 75 949 268 261 273 250 65 748 73 637 79 676 80 690 2 1181 13 849 78 761 19 903 80 691 211 760 215 467
265439 7.7243032258900275 -1.0875334329976643 4.0099781687354445 62 66 78 1.9738022688946002 48 607 84 713 66 315 109 546 114 499 110 523 160 469 391 68 53 787 59 744 65 793 67 533 70 564 71 377 73 572 74 589 75 598 81 500 82 760 85 858 93 560 101 642 105 349 108 515 112 500 113 652 115 445 116 500 119 650 121 511 122 334 125 439 126 516 129 480 130 422 132 594 135 422 136 379 154 507 156 444 157 434 158 388 163 344 165 410 166 484 171 431 69 613 80 636 67 504 79 623 117 536 120 398 128 452 149 363 153 388 180 400 147 528 143 447 212 374 91 557 92 550 95 426 96 390 46 814 98 425 61 637 63 427 86 598 87 569 89 409 97 354 102 371 103 365 104 347 107 363 111 543 133 388 137 411 139 402 140 366 144 387 150 378 162 411 182 387 142 499 151 394 55 509 59 673 60 473 64 620 72 574 77 670 85 814 88 581 126 431 143 348 145 296 146 321 147 268 148 357 161 451 48 38 50 46 76 39 179 34 181 24 54 52 94 583 100 460 99 431 51 483 57 444 62 466 68 579 138 337 56 416 76 686 101 620 141 325 53 514 181 417 45 491 393 58 214 488 53 790 56 1240 64 784 97 581 90 771 379 53 15 677 179 391 60 265 371 40 380 81 385 57 387 74 389 68 390 62 399 45 68 40 9 545 46 477
120002 30.510269713937031 15.636202022961767 63.385967743192012 183 188 179 2.1916363412119448 26 623 207 260 243 389 32 637 256 297 234 404 174 342 187 405 175 880 348 334 27 717 221 293 307 300 240 942 308 1052 281 632 279 589 303 1226 298 1344 303 1108 307 1061 327 669 329 671 334 728 338 1607 305 1041 332 1211 331 1348 308 591 313 470 215 548 335 1434 243 1128 339 895 284 713 284 758 205 784 223 751 203 464 222 416 207 707 242 1048 245 983 261 558 258 544 202 751 228 826 230 767 234 822 176 503 177 707 221 426 302 523 225 750 223 763 190 1180 294 1354 300 674 184 293 197 849 237 758 193 794 195 706 173 678 189 384 210 663 177 315 348 1715 333 694 174 697 178 743 193 784 201 641 204 785 232 794 236 700 241 987 249 794 260 730 261 620 259 645 175 718 194 918 224 702 289 926 291 927 309 517 337 1636 177 704 208 792 215 790 252 711 262 563 221 655 265 636 281 640 325 654 247 853 177 192 167 768 195 697 229 811 233 758 178 381 325 1160 176 830 209 671 243 1145 167 757 256 605 127 520 201 651 343 1009 233 737 234 811 237 916 230 759 222 681 227 722 282 484 228 322 258 470 244 1018 238 681 183 327 234 797 381 1032 189 848 340 889 326 599 378 1789 284 793 335 1439 329 666 288 523 286 753 285 406 293 1152 253 634 208 813 209 688 200 765 249 289 251 635 196 696 172 696 172 676 185 878 196 687 291 1153 250 579 250 268 153 327 229 824 313 751 330 375 335 510 379 909 344 1711 287 746 331 625 280 729 211 299 327 1357 278 323 278 614 263 406 236 712 266 548 123 336 266 531 277 293 277 371 277 594 267 547 267 610 168 297 169 549 240 947 354 1710 374 510 375 716 210 651 264 234 209 322 251 652 377 780
149272 -2.0809750133258667 0.75285357080234683 3.5284971300276529 91 79 70 1.6612108834393335 244 340 246 300 247 260 252 223 255 199 258 197 259 221 260 174 261 192 338 1723 187 412 252 416 239 317 233 574 331 672 191 1165 190 1011 231 435 232 649 234 702 244 638 246 944 381 2028 178 263 261 536 281 240 259 753 189 280 201 556 205 673 249 333 203 667 207 613 239 418 241 452 332 749 333 1370 178 642 251 254 344 1024 250 216 257 218 308 552 243 556 354 1310 335 860 241 324 387 599 390 579 253 223 384 590
120005 -2.6057392829619399 3.352248308591582 19.480171505216585 78 47 29 2.1558034763493912 65 861 32 734 36 1062 37 573 42 1413 47 555 53 762 231 345 205 852 200 259 228 267 168 265 209 242 208 210 205 261 172 204 188 440 256 301 191 1013 201 402 236 213 249 484 253 235 265 154 191 1014 248 201 255 235 254 297 259 219 246 282 259 494 10 96 266 134 216 481
120043 50.47623136066796 38.705889943423884 165.66766717777105 162 161 157 1.9532463006170853 22 1173 190 635 31 1744 286 225 235 685 127 680 175 699
120045 4.3005206465097876 7.0785285183750251 32.949972911789793 157 156 151 2.055353344111571 117 428 210 344 224 370 223 395 243 1126 245 1203 255 358 112 732 283 233 265 581 188 1030 300 586 308 417 279 361 281 254 123 690 174 661 178 716 192 400 204 779 243 1033 244 588 221 421 202 730 233 734 232 781 234 804 260 602 255 705 170 620 199 721 201 637 207 418 227 726 231 371 240 590 242 1042 245 988 261 613 159 724 210 644 222 688 223 755 224 701 259 646 265 577 300 583 306 822 127 654 256 641 299 668 304 1149 187 1265 261 329 28 1278 14 746 248 716 190 795 254 753 167 371 170 329 173 643 176 808 201 493 206 420 215 377 222 329 225 389 227 400 231 370 239 433 259 333 207 357 167 711 168 806 169 722 177 658 200 740 206 516 229 758 241 985 69 715 241 1192 249 369 249 370 294 587 247 413 284 440 189 441 292 674 197 714 237 386 11 589 14 561 33 1347 40 1313 41 912 46 797 50 77 72 47 84 512 87 647 89 814 99 54 24 900 44 1177 49 1413 94 593 95 50 142 407 32 1363 292 1091 98 56 43 893 29 997 17 1385 35 94 38 88 39 93 45 77 48 72 51 78 52 79 53 79 57 69 59 69 20 74 27 94 55 74 36 101 37 90 42 78 43 85 44 76 46 77 47 76 49 80 58 71 60 59 87 41 91 44 94 57 96 56 32 1365 54 79 56 73 64 47 74 43 78 45 80 46 81 41 86 43 108 590 112 413 157 573 96 502 28 967 31 1036 53 560 93 646 36 1088 30 97 160 562 83 863 98 900 11 49 16 52 19 64 21 82 22 83 23 77 24 80 25 82 26 86 28 90 29 97 31 95 32 91 33 88 34 86 40 77 41 76 62 59 67 55 76 44 79 47 44 656 49 900 98 674 87 646 32 1008 42 1081 45 995 47 912 48 1095 23 901 45 1001 55 454 59 434 60 407 61 512 77 509 88 471 124 615 125 616 162 320 35 1726 79 372 82 375 93 458 13 58 18 49 67 636 78 452 51 749 36 1849 33 1339 84 481 37 1208 39 666 51 961 57 584 63 903 135 771 132 827 46 1126 64 934 40 1274 68 35 106 650 106 652 106 659 236 351 193 769 195 679 195 680 156 682 132 822 105 556 104 684 104 689 6 41 295 1203 285 342 285 343 181 287 293 663 253 327 253 656 185 1026 143 719 308 1183 19 608 251 338 251 478 186 1076 71 41 4 53 281 363 185 473 198 410 103 733 172 653 172 360 12 448 130 653 179 595 179 439 146 339 152 616 250 324 121 30 286 610 153 306 287 338 280 272 171 403 279 366 280 696 163 375 211 346 211 529 287 610 263 289 120 32 158 515 66 868 266 304 266 579 145 415 164 420 306 1222 307 648 267 429 267 298 267 313 296 827 127 356 175 376 177 357 178 543 190 520 199 444 229 422 230 385 235 351 302 1028 289 566 4 590 159 361 14 740 17 567 256 621 301 1183 280 680 278 358 291 1131 4 869 296 1305 305 599 250 582
273809 22.842973768683947 3.7163390433571242 39.483713668472937 85 70 55 2.0139868435328347 38 1609 84 1074 307 700 62 1087 350 499 392 636 90 484 399 1608 54 1384 131 778 82 1149 59 1194 60 1114 109 981 93 1011 113 986 114 861 44 1022 359 443 51 1138 53 1245 142 599 155 820 160 692 393 782 84 379 288 577 289 746
125983 31.195233676901481 3.6276089981716173 51.622932287295747 137 113 101 2.278285494574932 313 569 159 213 86 568 326 802 327 1098 330 846 222 262 57 736 72 680 303 856 304 802 305 730 256 312 279 264 283 293 224 292 229 295 226 316 258 255 259 309 170 692 244 368 248 264 252 294 309 343 188 368 199 342 234 350 235 314 190 351 174 277 239 374 242 511 200 430 313 390 187 1141 302 429 245 499 206 385 207 563 242 771 127 742 170 690 226 561 301 560 329 452 260 533 282 645 190 666 244 1107 299 559 332 554 333 555 298 548 80 492 296 543 46 746 69 656 76 511 93 596 139 525 51 697 101 729 101 731 80 493 351 380 294 563 295 478 297 570 284 319 335 654 376 473 378 2101 374 596 189 404 189 613 290 638 291 623 380 751 375 489 354 800 168 248 103 663 237 332 298 547 68 617 236 335 193 303 238 333 341 589 288 302 286 309 285 274 293 625 382 667 293 498 141 561 391 622 340 561 384 591 386 571 345 578 140 631 383 521 66 591 196 273 196 508 198 318 198 814 166 499 390 648 124 704 172 224 172 482 172 490 167 233 395 1506 250 289 150 355 115 330 387 930 383 1519 337 694 381 2350 389 654 373 1099 385 1324 322 404 310 326 342 728 220 231 211 264 211 461 123 362 325 1368 163 740 278 199 278 516 347 637 379 580 346 997 394 405 394 1457 369 345 219 196 396 380 357 239 367 1518 398 372 267 413 366 288 319 161 318 203 351 1261 348 1055 358 266 350 1366 318 776 381 1387 377 1815 371 1064 353 1191 357 1012 371 1072 362 236 359 258 317 170 317 350 216 549 264 164 274 135 383 1566 273 131 315 272 347 1053 365 986 368 1383 272 111 399 1171 358 1074 399 1605 386 1883 217 561 360 234 372 1219 362 1303 276 565 270 122 366 1107 394 1459
256187 -3.6324729305900099 0.087825008323647008 1.665713997293927 0 0 0 0.0053287059858313319 331 402 338 693
299718 3.5339245738989415 -0.69980485693253791 3.080911913838547 0 0 0 2.3060042454278054 48 449 50 409 375 55 12 295 93 271 368 24 369 46 374 47 378 52 383 66 386 69 392 58 84 776 54 1413 365 41 397 54 57 619 81 694 377 51
120491 5.4752750116593223 0.00031497258905000594 -1.9200935523226761 0 0 0 0.58233055229077935 22 840 95 1022
226034 50.692682786993025 14.533985962290624 57.395538724809867 163 160 153 1.516748249368463 162 598 252 516 134 648 153 715 248 645 163 553 309 913 120 540 374 1430 330 1338 347 881 302 1263 164 245 220 705 219 491 373 1234 328 1546 395 1674 312 642 276 500 311 835
120492 5.4752725164752967 0.00033601373802763447 -1.9200953049924523 0 0 0 0.47130341570316825 22 842 95 1034
178482 1.8329312251219172 -0.7835503178190536 7.560425443727171 186 171 128 1.9870990146207215 54 417 33 691 35 579 187 1071 191 549 99 349 183 201 383 1783 242 709 256 509 271 199
120649 1.7966680770796097 2.1936290636980678 6.9689892276313374 233 233 225 1.6054595639481888 60 41 61 45 65 37 82 28 83 29 85 39 87 30 13 36 17 44 18 42 19 43 20 41 21 36 22 45 24 44 25 43 26 54 28 47 42 45 44 42 49 48 53 41 54 44 57 42 58 45 59 49 77 41 11 41 27 54 29 41 31 51 32 59 33 50 34 35 35 46 41 44 69 35 86 42 93 34 294 244 283 184 297 291 305 300 296 439 335 355 339 385 295 419 299 427 300 685 344 1923 284 115 289 153 282 71 337 523 289 258 294 1141 295 767 296 635 305 1127 308 428 293 166 286 154 304 1216 331 1005 332 1327 288 747 292 952 293 1037 290 548 292 957 287 152 280 83 288 109 291 133 292 167 343 528 302 1079 303 593 302 274 303 243 326 681 354 1120 286 93 296 198 327 1154 329 1019 348 1201
120673 16.777113375702108 8.1469852774606366 30.868876725759947 166 160 146 2.2677841101562124 113 141 13 173 62 215 70 157 87 433 329 1209 330 1147 328 835 313 748 326 1358 303 1098 307 1050 331 1338 332 1195 333 1219 343 1557 344 1285 302 1246 178 224 254 408 335 1872 309 947 333 1228 300 1177 305 989 306 1126 308 1042 381 1024 325 1110 337 1698 304 1332 336 907 299 1351 282 810 345 431 313 473 332 1342 379 303 334 720 338 915 298 844 305 554 331 630 390 2032 326 368 303 1112 307 1058 340 413 283 707 380 499 296 1348 329 226 331 386 374 869 292 1108 304 516 377 286 377 861 389 1151 288 856 288 933 285 596 293 1113 285 586 286 817 293 1128 75 1025 306 1118 307 1036 281 647 354 270 391 837 340 1755 383 728 372 574 352 569 279 648 168 683 309 194 250 265 340 1753 341 1006 374 524 339 1646 329 1220 330 1161 380 1642 382 1030 372 570 375 404 348 578 341 1535 386 330 392 1343 292 1100 354 1671 389 817 340 1738 379 900 379 632 277 435 63 170 106 415 383 720 393 259 348 917 391 316
120705 4.6599631025974286 2.4807936820336396 6.1345556772987004 0 0 0 1.6112865083011656 180 571 354 387 330 365 345 439 300 317 302 343 326 293 340 525 341 516 343 520 327 328 329 323 334 1715 328 266 305 1121 330 1260 341 1802 345 1470 376 1699
260553 4.9655636813796828 -2.4863596879978958 7.286623613653318 253 254 255 2.1763382754429057 77 823 308 1142 2 730 14 1029 15 1041 109 636 313 456 326 895 328 671 378 619 392 1041 368 1466 384 1322 397 1705 384 1323 326 897 377 1184 372 825 395 1015 375 953 396 1557 367 644 398 1343 319 505 399 1299 324 1039
232949 180.51406364405082 69.702869121955672 298.55120372264076 0 0 0 1.4239345942904609 124 150 305 140 279 146 286 179 293 323 294 294 297 303 313 111 326 206 338 202 288 191 289 236 290 302 303 234 332 319 222 122 244 321 248 254 253 156 255 243 257 179 308 223 338 440 331 232 341 343 354 337 340 397 342 433 247 201 374 293 381 374 389 375 195 183 252 184 261 157 390 438 243 127 245 176 380 380 372 265 296 316 298 362 334 286 344 287 328 199 375 249 378 456 376 283 382 504 206 732 135 140 379 330 263 143 87 204 109 188 154 182 307 116 185 125
148069 0.45086030453708109 0.42970494331600634 7.3937028034510712 136 153 213 2.2992737548009163 44 91 45 121 47 104 48 88 53 123 56 94 57 123 59 116 283 456 326 1090 304 645 305 1319 301 902 303 855 297 772 291 491 288 485 300 861 289 736 330 1424 293 956 327 862 334 948 285 433 290 637 284 462 329 1359 313 567 348 1054 292 621 281 538 302 1232 306 1048 279 545 284 190 295 824 52 140 54 150 285 223 395 968 5 108 342 1481 283 223 287 785 8 114 243 718 245 648 242 397 373 633 280 295 310 430 40 158 42 152 43 155 55 104 7 136 12 140 249 539 257 201 2 134 15 102 10 122 388 758 1 108 3 106 9 129 251 435 253 501 244 307 246 262 385 1325 346 992 394 770 320 534 353 639 278 291 312 787 237 276 282 97 352 126 256 251 320 533 250 195 396 827 371 467 323 610 324 467 319 386 318 524 185 575 257 420 394 86 256 432 238 229 368 1380 241 628 314 579 265 169 309 171 322 112 316 290 192 278 183 541 371 1067 317 347 276 444 234 239 193 487 277 256 240 352 358 1073 232 263 259 248 239 653 242 770 246 589 250 421 255 464 315 443 202 286 325 139 184 447 192 487 218 271 201 258 258 177 230 549 261 507 347 132 248 501 6 106 14 134 16 167 27 188 31 183 35 180 37 145 39 164 41 151 49 145 60 104 4 145 327 133 169 337 186 469 189 537 191 481 220 331 221 356 229 530 231 518 232 456 235 539 236 555 252 529 262 419 360 486 328 125 349 144 198 249 207 192 239 289 11 161 28 231 58 64 268 342
274424 4.9587816698336766 -0.82462606326727395 5.2134057691461742 167 167 165 2.6071893157359671 126 4 320 477 69 4 82 3 83 3 88 5 93 4 135 5 312 721 350 736 321 579 369 1379 397 1415 396 1375 357 608 358 1180 398 1675 356 1088 366 1288 331 943 362 1506
120813 5.5110841073880046 0.012733938178082155 -1.872952486067651 0 0 0 0.74420370983380701 54 1446 131 375
291897 9.4009395241917115 -8.7257923417473418 23.668119308999543 147 144 139 1.0396787731967327 2 804 9 1186 278 722 4 651 7 1279 274 470
120896 58.985954405894852 53.128405638806669 237.26355656138531 152 151 147 1.9252818079011131 31 1313 300 403 86 867 309 421 306 459 13 1057 17 1216 19 738 21 1345 25 1367 37 1247 40 1230 49 1548 51 998 55 1104 57 1162 59 1085 60 1039 63 942 72 989 77 1229 82 958 124 648 132 671 157 579 27 1626 28 1325 29 1380 30 1355 34 1388 173 345 176 348 178 540 187 577 192 394 201 328 203 404 224 371 232 317 239 586 246 489 255 355 302 512 303 430 307 415 190 518 18 1283 202 720 223 748 167 372 174 663 188 1029 204 780 205 770 209 656 226 397 227 727 234 499 241 981 242 568 261 606 244 1034 256 643 252 738 123 691 167 363 169 723 173 349 245 985 259 359 282 772 159 359 279 367 243 522 11 1212 76 1104 189 824 301 514 175 735 233 397 283 373 176 350 239 768 246 495 284 367 260 579 202 291 261 583 291 435 292 604 290 443 290 1012 127 238 184 678 197 370 237 794 236 490 193 394 195 684 195 277 289 445 309 796 105 752 183 760 248 362 123 353 285 668 286 329 293 998 185 1025 257 605 253 647 256 626 294 586 286 345 243 1132 298 866 300 1106 186 1079 186 508 71 926 159 736 196 352 198 810 291 962 172 654 250 263 250 306 306 462 248 206 170 333 308 1090 287 337 115 538 127 337 169 370 215 269 259 271 207 349 228 418 198 356 296 840 252 727 280 379 265 205 211 526 263 199 159 358 245 479 278 356 266 220 267 435 266 300 253 638 307 419 251 621 190 747
202507 7.9494395845702215 8.5541996043829158 66.567318585499251 48 19 3 1.7965603693254142 45 1167 51 926 72 908 78 683 255 233 16 1135 246 351 248 246 254 287 2 1119 244 318 247 293 252 252 259 241 261 198 71 824 274 95
133693 -3.7595102730577685 0.030885218164272175 1.4599699566344944 0 0 0 0.77320798404031454 299 1418 313 712 329 1185 334 1318 327 1480
224619 -3.3862054619827879 0.1741947868738252 1.9798078067620211 0 0 0 0.64248229680656954 325 512 343 1154
120898 5.6299631308505367 0.083154447860201361 -1.5740731384389965 154 153 148 1.7377095538386702 61 1036 155 437 27 1301 38 1330 41 1272 42 1266 46 1230 166 369 42 1243
182077 -3.6341824948049406 0.1159017113054551 1.8501162877363861 0 0 0 0.51958754276406438 299 190 308 177
297495 10.476785515652864 -8.041663994462521 22.105603389538238 0 0 0 1.6462666086147744 324 1343 76 737 80 668 90 676 310 585 321 885 323 1197 279 459 277 604
120900 4.1208678154537299 1.9463053604618048 4.8922525422263892 217 219 235 1.6330913564529992 33 1484 299 1245 18 950 19 746 20 869 21 703 22 1226 23 1273 24 940 25 559 26 1315 28 1388 34 787 54 108 55 114 60 85 65 91 17 1362 58 93 84 100 40 124 43 113 44 110 50 103 51 95 53 100 57 96 59 92 31 174 62 64 35 141 48 100 61 69 88 89 30 137 36 161 69 81
120902 76.453582678066766 47.953469817401349 192.21358084512158 166 162 148 1.8156396534484445 95 538 93 438 119 820 156 702 162 560 75 544 84 1026 90 854 97 385 20 864 124 547 21 905 25 901 26 1303 112 818 155 743 83 736 54 1235 65 1028 67 1125 70 797 72 820 73 731 77 1171 79 846 80 833 81 935 87 1064 99 712 101 1034 108 824 110 862 111 811 113 896 117 879 125 716 129 756 132 755 135 677 157 669 24 1312 75 883 84 1019 23 1264 57 906 67 787 23 1261 19 691 40 1311 48 1203 51 633 55 1170 58 842 59 848 61 554 62 832 63 1041 64 1027 88 902 96 1016 100 1091 45 1123 90 579 97 555 38 1340 20 715 28 1011 29 1453 36 1558 37 1321 42 1283 47 1277 162 654 34 1449 54 1222 50 1125 53 1150 56 1146 60 831 52 1201 43 791 27 1310 30 1417 31 1078 32 781 33 1459 39 1507 44 703 49 914 98 879 234 846 13 700 17 973 18 671 175 403 204 830 206 560 226 594 233 790 234 864 167 603 178 797 256 346 205 835 230 560 176 538 210 527 248 759 167 579 224 749 223 762 240 1003 241 1027 123 600 127 547 173 534 188 1114 192 590 199 565 201 695 208 618 228 871 229 872 235 732 246 927 81 511 258 714 262 631 261 633 265 602 169 592 174 738 222 560 225 586 259 686 260 642 301 405 247 956 142 837 254 799 175 749 202 778 208 874 222 786 228 853 231 763 233 774 248 742 249 716 187 651 249 729 282 779 305 594 309 586 303 558 102 1026 103 812 197 848 184 741 237 795 184 726 106 749 236 750 195 748 105 810 107 820 290 993 292 683 297 613 328 895 286 618 293 915 293 1038 253 686 141 913 238 846 257 629 251 679 140 805 186 941 196 519 198 729 138 760 138 771 151 492 172 737 161 775 152 506 146 686 179 659 137 477 17 969 195 528 116 803 250 630 134 691 150 646 150 658 147 434 288 379 296 842 294 1298 295 747 289 849 291 1104 307 643 299 1222 301 1186 291 1111 145 677 280 689 279 676 202 799 207 573 165 572 158 602 338 1691 285 637 266 595 148 686 45 1127 116 462 119 832 266 607 240 1020
261980 5.3810723225817583 -0.055264820512968542 -1.8212288518490736 0 0 0 0.20829296643893808 7 1222 9 991
120915 4.8886576048001098 2.4980995235221872 6.0860030585184379 78 70 117 1.8577637860885474 131 598 132 649 155 631 180 378 139 657 378 1830 308 1012 381 1933 142 193 375 1559 345 1464 305 1113 391 1819 380 1691 378 1818 304 1208 393 1932 182 365 385 1252 383 1276
140603 -2.3561611918208691 0.7408775935181694 3.1259056756616146 217 206 178 2.2578262470720518 247 650 335 1608 283 602 239 680 230 680 201 806 232 695 237 658 236 627 244 674 334 800 303 1050 259 613 291 539 338 1792 389 1567 291 402 345 1746 387 1608 342 2096 238 605 246 1002 250 542 338 1794 284 628 344 2010 245 1178 289 634 335 946 197 838 297 664 344 2015 259 615 288 319 233 467 202 443 201 584 336 977 253 794 286 740
215225 5.4782407997115055 -0.00054521273013622307 -1.9244379250208257 0 0 0 0.40087632049370214 26 690 30 922
120941 6.3129910757799168 4.4064745534079659 9.3584784140149271 6 13 22 2.5769211223343098 43 729 300 1284 305 645 299 1375 23 1081 31 1580 32 582 33 1251 36 1848 40 1539 44 1098 47 505 34 1234 39 1246 45 1269 49 1068 23 746 29 824 30 668 31 721 32 1248 33 913 36 1317 40 1087 43 1080 44 1105 47 1090 28 509 299 1379 300 663 302 900 332 531 298 1267 341 1287 300 306 330 273 333 398 336 1051 336 1541 338 1826 338 1822 296 1191 343 1950 298 677 299 726 304 685 305 1180 336 1744 338 1816 343 1948 344 2033 296 656 333 1405 334 1489 342 1858 337 1609 295 1084 297 749 337 1506 28 507 29 501 52 393 295 795 335 1616 335 1549 339 1707 294 643 289 674 292 613 292 749 293 555 291 551 289 506 290 508 332 1391 288 440 144 229 37 454 97 254 103 266 139 690 96 360 330 1465 287 402 300 640 302 628 331 1221 342 519 341 1277 379 496 345 1234
264340 5.4757288902875336 -0.0059938991293530452 -1.9256957155325845 0 0 0 0.40081936890257192 86 398 163 303
235362 38.347473707605722 13.922739478368589 51.425592575532335 155 154 150 1.9105781331225977 302 1118 343 979 182 650 306 734 328 810 307 581 331 876 332 672 335 798 345 536 354 1029 327 1263 124 562 135 688 87 951 179 649 289 361 296 1381 93 719 89 282 92 263 333 664 162 173 87 210 373 574 287 769 286 480 248 696 206 337 265 304 170 356 284 324 211 548 159 406 177 395 258 369 229 837 395 1330 380 707 382 786 393 622 254 748 383 1230 377 824 327 1275 195 731 349 450 385 547 197 750 329 640 126 195 150 177 69 259 134 184 117 689 89 950 94 253 182 724 237 399 322 592 208 407 102 975 283 324 281 316 307 580 265 300 98 276 165 568 136 189
121001 79.094795113577092 24.519903329977865 90.821459155185494 148 150 147 2.4461305676008696 137 688 147 424 283 589 302 1135 304 1412 307 752 308 931 327 1201 338 1959 354 1134 167 766 169 809 187 611 206 777 207 680 226 877 233 703 288 635 306 795 333 1476 297 870 334 606 376 596 223 697 262 690 302 404 333 528 392 830 377 602 144 653 152 686 325 1003 172 683 178 741 223 709 228 796 331 961 352 1261 376 979 381 2097 168 607 235 811 282 700 250 769 393 501 328 1351 142 842 184 715 286 798 343 962 375 790 333 1472 167 762 199 882 332 1506 209 661 261 729 221 627 382 799 335 1749 382 977 196 807 244 1121 340 1638 349 942 341 1232 280 428 310 642 378 1904 189 843 210 649 229 794 262 679 255 860 373 1271 167 621 215 728 301 591 373 373 385 467 372 538 390 679 337 674 203 754 309 970 205 754 223 707 307 371 242 889 265 707 308 375 309 430 220 570 280 432 234 778 379 1830 395 22 392 880 266 619 370 451 142 446 165 376 150 627 173 686 312 665 132 266 164 350 381 796 284 529 322 434 281 742 267 437 277 505 193 767 232 767 211 751 392 1606 299 1577 313 1147
121005 44.455694775285785 27.847399604274564 115.05783346107428 185 184 182 2.2161507346059004 162 619 63 999 17 937 30 1389 35 1468 52 1158 99 885 33 1424 54 1187 89 876 125 674 92 898 112 938 84 976 131 680 124 513 45 1092 85 1070 13 1088 74 743 33 1425 29 1427 65 1005 73 940 119 780 155 239 63 1185 67 767 119 207 43 1240 48 1174 18 923 25 1204 26 949 27 1292 87 880 96 981 112 795 38 1322 54 1196 56 1120 75 830 162 632 13 1095 24 1292 31 1362 47 1256 63 1014 20 925 51 1067 20 924 35 1482 76 895 59 651 17 948 76 896 34 1741 83 948 119 790 57 884 44 1284 49 903 131 691 52 1398 110 835 38 1327 103 792 53 1138 60 818 39 1486 36 1542 43 1268 90 824 37 1578 68 771 68 1039 107 796 107 928 166 611 138 740 151 678 146 671 134 659 240 296 127 240 90 798 47 1242 67 765 279 641 284 669 36 1527 282 753 285 631 250 613 257 611 241 316 307 761 25 1475 280 678 133 621 61 1007 288 855 297 1221 298 1197 334 758 163 106 326 648 301 1165 303 1170 293 1118 303 1148 304 1447 308 1116 339 1700 327 1407 267 418 17 949 90 1139 334 1400 11 652 288 232 198 292 331 1390
121213 0.10750303479546701 0.3801146653978737 6.8661574698708403 206 223 255 2.4383068361659577 19 811 308 644 301 676 18 400 20 559 21 370 22 1336 23 716 24 352 26 739 29 1287 30 891 33 958 34 923 36 1196 25 463 36 694 14 433 18 551 19 501 304 800 31 485 21 569 22 656 26 737 27 515 34 1130 23 1477 33 1180 24 1473 9 529 355 585 311 404 296 892 216 621 349 1089 355 586 328 970 298 947 299 994
130755 -4.0516447941427902 14.023167956147359 65.737474993159879 221 209 171 1.7358343074860323 240 108 139 138 202 211 203 84 224 73 225 113 228 163 233 163 254 145 173 60 177 79 178 136 127 142 175 121 224 106 260 119 262 102 168 221 192 250 249 265 260 75 261 105 262 58 237 97 197 122 206 199 195 79 238 84 190 210 253 123 185 84 245 253 258 68
139633 3.8881083243491159 2.9045960319482953 4.8284242780223101 138 140 185 2.2046252343574633 47 198 333 409 334 428 338 657 344 519 343 542 27 254 31 253 32 295 39 362 40 224 41 279 43 207 49 203 35 381 36 355 34 1258 29 1250 33 1281 33 1279 30 300 33 514 35 452 332 377 297 379 337 478 335 470 339 747 378 625 382 581 305 529 389 876 390 592 384 827 341 548 334 820 341 730 340 435 343 739 335 1612 341 1110 340 439
298764 5.2746758451647029 -3.6468153256836158 6.6660169354471988 185 176 167 1.8288464465373124 3 882 398 1107 394 1006 397 1117 274 292 276 318 321 1282
121291 4.6539637069603792 0.98616886657619296 16.080874888219391 184 185 180 1.9128900327648219 21 1070 18 1233 27 1098 28 1634 82 1078 87 1062 94 946 108 974 155 654 156 651 113 743 156 659 100 781 139 566 43 487 29 529 32 1101 33 408 105 331 143 250 140 588 4 945 66 1003 66 1018 151 407 12 879 376 619 374 592 375 577 344 881 8 905 115 790 115 791 7 1283 171 443 145 262 15 1159 9 1289 1 269 120 552 3 1088 165 759 212 526 371 460 367 413
176094 0.79200047130539797 -8.9811072313371554 35.504910720643693 0 0 0 1.111451878873323 156 316 258 235 259 328 282 272 260 237 261 404 279 241 131 322 155 339 280 215 278 218 212 252 277 227 218 350 214 246
221633 5.5217833274809278 0.041844073123031143 -1.5180905277966397 69 38 20 1.9699557325605304 17 461 56 292 82 339 107 205 128 177 52 429 114 197 71 145 75 231 83 270 152 175 160 165 115 205 112 215 122 218 61 343 120 152 164 147 72 344 158 154 153 217 138 309 118 234 54 440 59 272 144 283 46 424 58 302
224039 5.4689606707245968 0.0013613420899111458 -1.9059181194687536 198 198 186 1.5215560834436053 39 60 129 155 21 51 26 69 28 67 29 71 31 68 34 68 35 88 37 59 38 84 42 58 13 57 18 63 22 67 24 75 25 58 43 73 3 50
302655 10.267340091146371 -8.8610243936463871 35.080511377200075 0 0 0 2.1010751352381036 212 143 314 119 178 90 203 155 286 114 306 171 312 139 317 275 270 77 229 308
121311 2.7867651638546409 2.3274685027398232 4.4860492396187892 21 19 30 2.2268069893367586 41 1036 25 934 22 993 23 584 26 584 28 782 29 803 34 703 47 1054 42 744 44 1067 56 955 33 830 56 952 35 1181 45 938 30 673 36 761 32 824 52 967 41 1504 53 1183 54 990 54 994 31 1527 51 641 27 672 27 1431 43 646 41 722 35 816 37 444 48 670 31 819 47 746 42 1046 44 1066 49 633 38 792 39 841 40 1052 38 1482 40 1533 45 509 46 672 50 934 56 631 53 646 32 1705 54 579 24 582 52 1363 39 1185 342 1845 301 968 94 791 302 901
191117 -2.6120272858028573 4.8732695524598864 13.842297438568705 46 49 56 2.3922128122756963 62 596 183 41 185 44 187 51 188 48 189 49 190 46 191 51 192 40 193 42 194 54 237 73 239 51 240 44 241 54 243 61 32 804 41 707 42 793 45 623 46 663 48 540 51 600 56 656 57 663 58 618 61 580 33 753 36 787 40 676 43 663 44 730 47 732 50 634 52 660 54 685 59 942 55 934 60 605 53 635 27 600 39 622 40 543 31 1449 23 1290 24 607 26 609 34 1493 45 901 47 1369 48 698 51 601 52 662 57 664 58 1110 25 422 30 1481 46 567 56 434 28 1422 30 1485 31 742 32 1550 35 745 36 1626 37 677 41 655 42 654 44 545 19 325 49 620 43 661 49 420 35 802 33 1768 41 1361 44 731 50 636 50 544 33 597 37 734 27 1380 43 1374 31 1102 35 801 49 618 54 686 59 518 42 1367 52 567 35 1109 40 745 46 466 38 1419 186 42 50 543 29 663 57 377 58 356 49 621 46 962 43 431 61 300 49 987
121324 -3.2407748827513227 0.81237058942298968 3.6395611377151655 63 53 74 1.727417922469751 200 865 201 598 199 669 298 983 289 681 241 790 193 699 241 559 250 565 193 678 301 1058 288 927 251 402
121350 82.177883988390562 49.21262646473086 205.31038580703935 166 165 162 1.920203655608048 25 1420 90 817 21 1137 22 1200 23 1247 29 1438 76 1233 57 887 73 949 18 926 35 1476 19 1282 51 1061 26 1286 110 274 26 1289 64 1146 51 1069 17 950 52 1168 13 1092 289 558 342 956 343 1042 340 197 297 1354 338 2126 327 1408 299 1173 168 213 189 382 231 302 234 319 252 272 303 339 309 253 329 231 190 406 205 244 313 213 285 208 345 174 253 266 341 1035 166 244 123 230 159 267 136 617 185 1008 332 835 337 532 326 270 339 1554 291 350 164 212 13 1102 354 205 228 822 329 694 309 988
254124 -3.3642549793898575 -6.8711183604498309 26.379967355348835 199 198 212 0.6803153579168294 84 1133 272 354 170 465
121532 5.1112168863343914 2.4379938503261998 9.3293317832465501 207 197 162 1.9931193184241047 30 276 340 610 354 469 393 1723 349 306 347 290 378 1926 345 1250 337 246 385 825 389 1094 394 1248 374 1462 325 1008 328 802 339 1860 341 973 343 457 382 1951 390 1845 384 1668 386 924 335 394 382 2056 381 491 344 235 389 1400 334 294
136425 2.737822967847253 2.2618101855424251 7.7562868640385787 16 17 19 2.068858080861141 70 545 73 490 74 534 75 527 77 491 78 533 79 555 80 563 81 354 82 429 84 467 90 353 14 751 33 1381 41 1226 46 1200 47 1221 50 462 55 551 57 437 58 405 59 415 61 384 62 502 63 478 64 475 65 470 67 411 72 469 76 609 83 442 88 298 89 313 91 292 92 300 31 1309 42 466 45 391 48 358 52 449 53 407 56 322 19 660 33 1377 51 360 54 462 35 1740 38 1278 17 560 14 750 25 676 84 1000 11 1107 18 619 19 598 69 377 11 597 13 654 18 812 85 412 86 450 87 435 93 302 95 284 27 393 38 531 40 515 43 446 47 449 37 466 41 432 301 1191 139 346 246 297 259 222 378 542 329 1470 376 520 244 338 262 132 265 145 235 218 377 499 247 258 245 286 192 255 378 981 381 590 375 442 382 610 374 479 258 142 390 699 381 1035 380 595 16 721 142 343 309 30 380 1681 334 573 68 518 6 606 6 894 238 208 391 563 293 997 253 225 143 322 384 616 71 508 4 911 383 1357 66 391 66 488 387 753 248 175 254 180 289 571 249 213 256 197 386 569 241 298 243 289 348 409 202 255 305 1038 134 342 392 516 285 680 133 328 379 532 292 920 379 908 295 996 204 189 232 215 233 173 330 289 354 403 75 449 22 595 28 716 345 437 381 1183 351 335 389 635 334 1383 379 1634 328 34
258917 5.4850428135577731 -0.02043101123054053 -1.9085703810907682 0 0 0 0.32835140470067697 6 663 10 989
